1.782523160591721334e-01 3.771593220905959942e-01 -2.923114780701696613e-02
2.001659330645203516e-01 3.580223153363168431e-01 -5.253070335395634838e-02
1.880797609367966805e-01 3.487708219872415194e-01 -5.937869830764830326e-02
1.761421892860531857e-01 4.484975707748532492e-01 4.213003665134311404e-02
1.901304475191235577e-01 3.206819147023558525e-01 -8.771414068505167805e-02
2.988861832717061295e-01 3.403475443094968744e-01 -8.933031981617212125e-02
2.311299923412501733e-01 2.467013830393549600e-03 -3.338812092043462465e-02
2.085231700353324391e-01 -1.009339710235596099e-02 -2.075016550660135212e-02
1.926282495951652518e-01 7.702830263257026688e-02 -1.084097302225232318e-01
2.250859665589034497e-01 -5.960064986586571800e-02 2.906273116767407044e-02
2.201179196424782325e-01 -3.490883219555018790e-02 4.218473128899925817e-03
1.914768161937594471e-01 8.697782516345381465e-02 -1.184206783203035629e-01
2.207553581988811464e-01 -4.558436379805208549e-02 1.495991247557103623e-02
2.247008612349629397e-01 -2.315602583035825113e-02 -7.606891777738954141e-03
2.161296632084250546e-01 1.677015928027034142e-01 -1.306332591493427620e-01
1.988435719220340292e-01 1.835880186972022043e-01 -1.466177633772790256e-01
2.397729857465624725e-01 2.211010777756572399e-02 1.585706694267690828e-02
1.719434410965442472e-01 2.080454071682691641e-01 -1.712261448982357881e-01
1.905622062629461211e-01 2.153505948039889373e-01 -1.785764327336847868e-01
2.045764048065245033e-01 1.414375861126184741e-01 -1.042071058219671276e-01
1.930445491480827225e-01 1.714464737343788237e-01 -1.344012599086761295e-01
2.256392651601135668e-01 1.137437641991675130e-01 -7.634231001935898320e-02
-1.492235084113479049e-01 3.489423482035100554e-01 6.465255065783853672e-03
1.201126735575497040e-01 3.677708215063810737e-01 -1.202279828873276668e-01
-1.515338728830217807e-02 4.158140382757783415e-01 -4.610953787520527536e-02
1.430913394764066204e-02 3.322418242704868740e-01 -1.349637090250849769e-01
-1.864054514810442598e-02 3.626624534520507259e-01 -9.829315200641752792e-02
3.138084419520199564e-01 5.100757034468650364e-01 -1.640970068722962666e-02
7.502728884175419166e-02 4.961973560382426096e-01 1.627839982904493235e-02
-5.400745866939421491e-02 3.443533309435844458e-01 -1.096167355260252996e-01
2.072123664648830854e-01 4.334832043635845622e-01 -7.183133427947760441e-02
9.593545478135345750e-03 4.888229272037745154e-01 2.168410016119479491e-02
1.418776900859177181e-01 4.111446699889004242e-01 -8.132765920750797961e-02
4.334566714957355238e-02 3.486870949350298066e-01 -1.242613096732646250e-01
6.453609516695144044e-02 4.043484423103929082e-01 -7.302842845425011609e-02
5.502566464021804715e-02 3.852445819297433127e-01 -9.017671730503440397e-02
2.430499269917604788e-02 3.124555119444429874e-01 -1.565886373480409322e-01
-1.798670304939148368e-02 4.028971265172958116e-01 -5.840456265032291372e-02
-1.211352474705875149e-01 3.272073105674981885e-01 -1.135996600571274884e-01
6.759726499274373857e-02 3.431277807192504303e-01 -1.345122104067355273e-01
1.520073680952191419e-02 4.030639436730742986e-01 -6.470028778448702611e-02
-2.531765991374851366e-02 3.552773215383291383e-01 -1.043380841383338142e-01
-4.454152945727096746e-03 3.727209658524394120e-01 -9.105144166603684752e-02
3.308578700108826265e-01 5.129401381649076885e-01 -1.688038613878192068e-02
-9.632887451335786499e-02 3.359880157309770854e-01 -1.096965320214629280e-01
1.324911721184848790e-02 3.226949994666874488e-01 -1.442522355061024442e-01
1.179034797997772499e-01 5.204766355456411642e-01 3.207761153437197615e-02
-8.852727064341314733e-03 4.984212080183625382e-01 3.482170128002761572e-02
9.076903270319103267e-02 4.761619613561034470e-01 -6.712987312525522943e-03
-8.662031001731756996e-02 3.328561435598135221e-01 -1.147016437441110703e-01
-3.478846364662052659e-02 3.316256388914585185e-01 -1.260171814256906553e-01
-6.864955900117752918e-02 2.861104444792866852e-01 -1.646920858944952437e-01
-2.799246849939229786e-02 4.193218896850943733e-01 -4.012097589686512700e-02
-1.165632273003458508e-02 5.068476127700507483e-01 4.374815016798673517e-02
-1.171032211951911206e-01 4.039856436721980804e-01 -3.802385687805713566e-02
4.477223172858357803e-02 4.159738139943778279e-01 -5.761822240300476516e-02
2.654241266472637806e-01 5.082882086437940927e-01 -8.766990341544156351e-03
9.532611399725079981e-02 3.625156959345937069e-01 -1.206285596974193963e-01
-5.349231034919621486e-02 2.731363710957765978e-01 -1.805467464083433116e-01
2.938712901189921567e-02 3.623804571524262830e-01 -1.079246619327366430e-01
8.557792270734906892e-02 3.676714066335559083e-01 -1.136028988756239699e-01
1.072537789495289218e-01 3.833720151659846254e-01 -1.022079796616733038e-01
1.940859909982979303e-01 4.236200152193009827e-01 -7.908517000980677669e-02
-1.040759127132594442e-01 2.306943945744633628e-01 -2.129092512948811411e-01
-1.015992380969226172e-01 4.376964727890491624e-01 -7.514978098869334877e-03
1.370630346317589510e-01 4.974628882388770768e-01 5.458614859208475723e-03
1.995107755213998413e-03 4.180216685326397785e-01 -4.725274481467903187e-02
-5.920847536370160702e-02 2.787269966541230937e-01 -1.738735760743170822e-01
-6.005054473325605047e-02 3.416312068358063891e-01 -1.111474615643918418e-01
2.508612799032032270e-01 4.940029650476575052e-01 -2.013915246531369080e-02
1.974542684765160094e-01 4.159575465582311393e-01 -8.736178102292121994e-02
3.003551454360783302e-01 5.179194846364856275e-01 -5.989197485595967874e-03
-3.227216223642231929e-02 3.046242495861649635e-01 -1.533616750831902076e-01
-9.370359942004086173e-02 4.005625401146710174e-01 -4.598428201697767059e-02
2.992654086048900930e-01 4.923325451099873074e-01 -3.122483250498771234e-02
-6.645027194187047570e-02 3.623913820558786747e-01 -8.925413703709841884e-02
-1.217692761723697115e-01 3.595107387506962238e-01 -8.134843866378070609e-02
1.166948625870048994e-01 4.516088217060267862e-01 -3.618040778256953471e-02
7.365025775507091921e-02 4.289367268463969429e-01 -5.034838367149234439e-02
6.229718131378292334e-02 3.618892844605445802e-01 -1.148207913351058929e-01
-6.467697291657331649e-02 3.998068901114165685e-01 -5.238734284885229742e-02
5.661073639467359420e-02 3.402932583001256339e-01 -1.351922292612493248e-01
1.055399201150238608e-01 5.123537925232947154e-01 2.640613746143876533e-02
-4.763745155617599147e-02 3.957435851643980040e-01 -5.974616887755691830e-02
-1.078453326508405086e-02 4.545597882102430098e-01 -8.425092862918995285e-03
2.657510476966202240e-01 4.586769494815171044e-01 -5.817213550500571762e-02
-5.123358309909703534e-02 5.041234446901082800e-01 4.874453609913585728e-02
-5.167938453003767529e-02 4.730336436645686815e-01 1.791058690063655409e-02
-5.357156393691897556e-02 4.232986011433601536e-01 -3.118560696005823196e-02
-1.147454269604384902e-01 4.547727549631893629e-01 1.202802925117314389e-02
1.556182808573544074e-01 4.277675320231915101e-01 -6.747049542218448714e-02
-3.519463828369978620e-02 3.615406943790615002e-01 -9.618570919044316936e-02
1.468706661124527524e-01 4.396070768053830236e-01 -5.399215797834100439e-02
1.183889080245792702e-01 4.674705874928831717e-01 -2.073472457423808368e-02
1.723606012637913243e-01 4.750128506723046429e-01 -2.374182797268035300e-02
4.687245180323718063e-02 4.340304185388982328e-01 -4.006871778048574917e-02
1.550337856478989085e-01 3.903968137468397659e-01 -1.045242049395292971e-01
2.564783779330551683e-01 4.624255178578198233e-01 -5.263855015985670349e-02
1.021716426368057817e-01 4.284367725630104928e-01 -5.639876799039543476e-02
-5.046086061879989648e-02 2.780255935940146306e-01 -1.762743364982306826e-01
-1.241666972009837777e-01 2.653015790119767070e-01 -1.745785463480651611e-01
-7.961124202460034827e-03 3.407802600419521655e-01 -1.221356552579998811e-01
1.596998406250774716e-01 4.661024725103378730e-01 -3.013868949830533772e-02
-1.248502593950927553e-01 2.138904228098690852e-01 -2.255770591147989168e-01
1.964735053284466237e-01 4.612725415599346346e-01 -4.210223481833934300e-02
6.519984396412967231e-02 4.491499376673996347e-01 -2.859977818213403633e-02
6.805297312214972361e-02 3.700071796877682506e-01 -1.078676976510137553e-01
2.759648538143932850e-01 5.158224522608518825e-01 -3.326007384061843708e-03
6.201979375675320538e-02 3.289725136864185551e-01 -1.475045663484930991e-01
-1.020252261309325670e-01 3.873171399219333955e-01 -5.753742817245426078e-02
-1.249096995858848258e-01 3.044573694626987459e-01 -1.354910057473927842e-01
3.841213131383061641e-02 3.126443416292965516e-01 -1.591475116165727566e-01
1.955480961352562552e-03 4.373376316054165547e-01 -2.803409873805941255e-02
5.800758087828755682e-02 5.168244599448144072e-01 4.010709989659486802e-02
2.077473281820118312e-01 4.921398977097868888e-01 -1.359774996921422202e-02
-1.971046858236197297e-02 2.957507532665133443e-01 -1.646326980714500066e-01
1.136931329520046718e-01 5.154443295490742649e-01 2.789242886930704685e-02
-9.992500605627890886e-02 4.410781885863840901e-01 -4.477625731751325167e-03
1.518092341259119626e-02 3.515259543156624145e-01 -1.159541767433285853e-01
-7.593098237320783372e-02 3.936708308611810425e-01 -5.629886726386845730e-02
-8.006207563325756782e-02 5.083369494113325615e-01 5.854807230934500062e-02
3.485710468669235840e-01 5.233276792044938563e-01 -9.998105577155955159e-03
2.854427934542298484e-01 3.121688025592267435e-01 -1.147383925152569983e-01
1.645158386752009205e-01 4.849029373732209325e-01 1.022976911507547104e-01
1.863181970848142854e-01 4.433841530466079428e-01 1.440728008151054562e-01
2.114386917208135319e-01 4.466683992648124990e-01 1.407682785588503238e-01
2.112058810591697644e-01 3.972984902058541712e-01 1.904429836209863558e-01
2.113671636590361558e-01 4.599179536804556823e-01 1.274369251020252836e-01
1.920227441737055729e-01 4.349806465134025135e-01 1.525281882412731771e-01
2.267897694079577808e-01 3.702598021158576280e-01 2.176486009918153497e-01
6.164005561590195637e-01 2.635460862363874779e-01 -2.752272154655307501e-01
5.169426533843577420e-01 2.489433148255943973e-01 2.707045093010366221e-01
4.533791554306447757e-01 2.539008037629723602e-01 2.657164142672717722e-01
4.822985361473262067e-01 2.476354773987829438e-01 2.720204209790378913e-01
5.047552104982733212e-01 2.431819129441678273e-01 2.765014804755896449e-01
5.446914076618849521e-01 2.368003669492900198e-01 2.829224243163317443e-01
5.199469928321241996e-01 2.373169145211577180e-01 2.824026877449452577e-01
4.597638124737143395e-01 2.933073629987240083e-01 -2.570144844245910720e-01
5.008614362446963675e-01 2.890881573475897470e-01 -2.527692306127399258e-01
5.833407332357763986e-01 3.031131329081952486e-01 -2.668807925165444517e-01
4.467679879200459059e-01 2.863643629458546558e-01 -2.500286202214658249e-01
4.013902091690897955e-01 2.818203514687717126e-01 -2.454565552512556481e-01
-1.318047617177665609e-01 2.555541830430925199e-01 -1.827857994062453417e-01
-1.286671090957522412e-01 3.016542086556553981e-01 -4.456810687258840054e-02
-1.291921641144156419e-01 3.100471148110925945e-01 -3.611860908500849621e-02
3.336351261669397439e-01 5.373234017591178580e-01 4.955359734587373027e-02
4.618932554642856125e-01 5.577103376857937000e-01 2.904079807482663061e-02
5.849633784241974332e-01 5.810292781421542152e-01 5.577892902940535802e-03
4.320452549046277513e-01 5.519665286211670185e-01 3.482006783418357260e-02
3.116029575774073579e-01 5.388368062391877267e-01 4.803084954842926774e-02
8.446972564011812068e-02 5.291146687893568679e-01 5.781300894372166932e-02
2.318175397656857817e-01 5.253870749750733093e-01 6.156361575618386761e-02
3.435565282480418370e-01 5.489837706756591773e-01 3.782124056637290593e-02
3.989812207858264292e-01 5.572806113950907747e-01 2.947317742787301104e-02
3.250035810060799002e-01 5.333027149620652718e-01 5.359910674527288560e-02
2.845707170604169223e-01 5.430443395033479614e-01 4.379734017387033190e-02
2.276055009581148536e-01 5.374580871252715442e-01 4.941808055840436059e-02
4.253806320142745623e-01 5.449138486143947357e-01 4.191628911927342688e-02
1.902907929986715208e-01 5.388576010134815686e-01 4.800992649421096520e-02
2.081199968345463225e-01 5.412259419956803042e-01 4.562696402266625678e-02
1.207760037159919808e-01 5.258025209008156953e-01 6.114560507617890217e-02
3.924917347507178578e-01 2.241028096891939381e-01 3.072165140525252025e-01
3.381832137636840430e-01 2.200159704320132636e-01 3.137258329530805412e-01
-1.195255466979742165e-01 1.739559482364356757e-01 -2.049286516175418960e-01
-1.603855867902934662e-01 3.095199409928918177e-01 -1.235487637220323009e-01
-1.388809152135252467e-01 3.819807415167987275e-01 3.731028341285885092e-02
3.305581347955763305e-01 3.504844482812285444e-01 2.151622654078900743e-01
3.057107650421559963e-01 4.859369749435782371e-01 9.609396493539215656e-02
3.329695579418540108e-01 3.296947174659371482e-01 2.191152022902667640e-01
3.345931309847534063e-01 3.270782744404673315e-01 2.330957208500802624e-01
3.402352866730093961e-01 2.998490972378849984e-01 2.636420518200098817e-01
3.223376849322021065e-01 3.929531031647324202e-01 1.734385490487515835e-01
3.442319845932722000e-01 2.702363082072138933e-01 2.750114730064571189e-01
3.373837483328581133e-01 -1.307139190346001678e-02 1.280049541726707013e-02
3.246140140110254091e-01 -2.209872244641181149e-02 6.308534759953632332e-03
3.191356097596883545e-01 -2.845970232188699267e-02 1.048795336484900642e-03
4.037186600786447643e-01 5.194440205252170983e-01 4.466311238229276476e-02
3.985275500828027728e-01 5.185489074158668998e-01 4.478358201235534825e-02
4.085531289297342217e-01 5.015872443956136406e-01 2.596215715765954474e-02
3.992903658646345111e-01 5.084279479356110798e-01 3.456913504190745057e-02
4.312295617169141781e-01 5.149463181938230827e-01 3.483346047528088768e-02
-1.588745782668888329e-01 3.130867890629172035e-01 -5.136188103213906730e-02
3.424926275961100997e-01 1.300398551389574942e-01 2.233999231682717856e-01
3.014152614513039286e-01 4.440091906274855060e-01 5.063208442218602306e-02
3.269547682385146592e-01 3.248083259256184241e-01 1.789095848108082920e-01
3.019075566224753704e-01 4.309998027022182709e-01 5.592009205289184826e-02
3.057981522296369103e-01 4.119586085264385078e-01 7.568879205606879323e-02
2.838596459479629797e-01 3.132400123743712683e-01 -9.313455588437616339e-02
2.949084609074890673e-01 2.553361977510154590e-01 -4.034863185562193033e-02
2.916366552355885711e-01 2.718123878823220374e-01 -5.779182045049964522e-02
2.871190203170478350e-01 2.918153045298159109e-01 -8.919522733800111514e-02
3.011434217537939384e-01 2.269732057301700190e-01 8.991383662074817207e-04
1.376970633335411476e-01 3.220297305296361268e-01 -1.691440545789152372e-01
3.214663198657333743e-01 3.232591591598094061e-01 -2.037014105068892245e-01
1.123557286591827797e-01 3.389756310500204872e-01 -1.473563100876659204e-01
2.001488904590904561e-01 4.109945596162974946e-01 -9.282242745436730669e-02
3.563577118606865435e-01 3.023931686012447106e-01 -2.312473370371014303e-01
3.562586448760330926e-01 4.640673738582432595e-01 -7.043296214394273447e-02
3.336614656765758968e-01 4.129058854240179599e-01 -1.169165566527843592e-01
3.770726183517277286e-01 4.069990486535429719e-01 -1.312434790565073506e-01
2.426783469708263807e-01 3.267087959802150721e-01 -1.849304165506363007e-01
3.880839925244450317e-02 3.078972610379755448e-01 -1.639459333600848945e-01
2.556164951665699236e-01 2.754179605892300708e-01 -2.384614264659583593e-01
3.243887959130108412e-01 4.202702732008695707e-01 -1.077868132680654678e-01
3.640354031713307070e-01 3.068057698461413851e-01 -2.283535856358707150e-01
3.619549964936077391e-01 3.526447491985559846e-01 -1.823588023525476720e-01
3.152548199279606167e-01 4.051024604955315578e-01 -1.210937532366812286e-01
1.603041492314636607e-01 2.994649164707958722e-01 -1.959877976461500138e-01
2.866839015538990565e-01 3.285948208895326239e-01 -1.916225824789702936e-01
1.714689984019100444e-01 2.949291767954826948e-01 -2.026726836207508875e-01
2.541503037936985732e-01 4.023465159597993113e-01 -1.119375878985226225e-01
-1.390514328166841951e-02 2.223402862739563002e-01 -2.387742926356196671e-01
2.738547270412742818e-01 3.918993634735047915e-01 -1.261644083527475591e-01
1.639795343621075208e-01 3.223541035735607574e-01 -1.739386746579408838e-01
3.397838053281605486e-01 3.653616527268290781e-01 -1.653942901067435856e-01
3.095386549134552245e-01 4.791455101956427209e-01 -4.634037531040612057e-02
2.739438873274624431e-01 3.559483616578579257e-01 -1.619372828027606237e-01
-4.091080329820517836e-02 2.543319343242049779e-01 -2.016985671104490896e-01
2.214284787626564499e-01 3.461372702549397884e-01 -1.614702110696584203e-01
3.408933555562794204e-01 3.021715193435550173e-01 -2.284568519346416027e-01
3.681367763359844614e-01 4.913564492493868174e-01 -4.560496043860912119e-02
-4.917298981830481308e-02 2.248069515550136510e-01 -2.294543471458554418e-01
4.241443749383091988e-02 2.890772492428124174e-01 -1.833657096200436154e-01
7.802901847675441926e-02 2.937412581568956682e-01 -1.856612642535567514e-01
8.127354105263939754e-03 2.464912436747551117e-01 -2.190444125947356713e-01
3.634410012634098353e-01 4.241415289512276976e-01 -1.115401200713217467e-01
3.470850420971214878e-01 4.581479486398398748e-01 -7.453408822454513083e-02
2.705855165477096813e-01 3.446535569812357869e-01 -1.725167920016497380e-01
2.701099950213730061e-01 2.819543482847511884e-01 -2.347824831794947387e-01
3.380897598905861501e-01 3.251321001170575653e-01 -2.050752579856663926e-01
3.101330568213760963e-01 4.312972921587526764e-01 -9.404414490275087024e-02
1.451964340718090440e-01 3.168749614220858213e-01 -1.757309308123588543e-01
2.754397987957298843e-01 3.672391675387323140e-01 -1.509991275457292781e-01
2.287099021346866989e-01 3.368917223581672227e-01 -1.720831874753534774e-01
3.404277407284080903e-01 3.693379099307954050e-01 -1.615650291899591862e-01
3.202874227483570868e-01 4.484644815471768853e-01 -7.894737122341990987e-02
1.112263650341332177e-01 3.498691619859636281e-01 -1.363021252778917891e-01
3.479271114666759868e-01 3.721875723981857842e-01 -1.601909987044334294e-01
-6.340891551300881224e-02 2.204580314342677871e-01 -2.310078674245625852e-01
1.499318359382450505e-01 3.609383141461015021e-01 -1.328291652943194012e-01
3.361480469913780689e-01 2.943221152924001549e-01 -2.353396567145735196e-01
-6.741122169300917122e-02 2.259105776081979378e-01 -2.248057160703093027e-01
2.269020084932446557e-02 2.893627300611138486e-01 -1.792414480875432481e-01
2.391375693827857418e-03 2.693295265896618607e-01 -1.952135129844397576e-01
-9.655169640034433343e-03 2.248241054375469672e-01 -2.371314545499533799e-01
1.074816330142319143e-01 2.690563074184954551e-01 -2.159464483701437620e-01
2.195561127527058121e-01 3.209491887423396306e-01 -1.861567780433595332e-01
2.996171752288936951e-02 2.837603968644142327e-01 -1.862290912723541247e-01
3.663931974060833374e-01 4.160344484287500366e-01 -1.201779137808084430e-01
3.343054010768234940e-01 4.447168621702492497e-01 -8.540393012158574437e-02
3.349394297786056907e-01 4.024451161886751782e-01 -1.275692656397074409e-01
1.266411878462135876e-01 2.952035242752730770e-01 -1.936717982877045885e-01
1.531713263364136157e-01 3.463861658938229282e-01 -1.479329176100343535e-01
2.143650027568638206e-01 2.981890030226111987e-01 -2.077824876172840451e-01
-9.570883874595037533e-04 2.278896779595315780e-01 -2.357760784471780169e-01
3.009099205501377661e-01 4.741157100865245333e-01 -4.966280025079847227e-02
2.791845308156311600e-01 3.013206528635323234e-01 -2.172883079572767162e-01
2.313946174187958282e-01 3.151461154241860241e-01 -1.942332679643481996e-01
1.896874168796837123e-01 3.767322345076501433e-01 -1.248615861956030026e-01
-1.494534662052987573e-02 2.576315501736104463e-01 -2.034723994664102975e-01
1.652178716702759342e-01 3.325067384900153300e-01 -1.640823514481634104e-01
1.705377687461674119e-01 3.687572466674446936e-01 -1.290647493268549661e-01
4.524775325492025324e-02 2.970383614699542707e-01 -1.759995367462188209e-01
3.510576281817257560e-01 3.685289963316917827e-01 -1.644391963568330173e-01
3.727037643285095458e-01 3.111871607680619101e-01 -2.256837594815343517e-01
7.919313437491665164e-03 2.666557783053815633e-01 -1.989490187609940786e-01
3.372476905210316511e-01 3.509068079444765953e-01 -1.792767506389320031e-01
3.372179704256356159e-01 4.695807803390920077e-01 -6.124229268737137188e-02
2.280065265436470590e-01 3.766114665971696529e-01 -1.324424750239402149e-01
9.884299195244908298e-02 2.838841905762255480e-01 -1.995172392337769274e-01
1.964239718361198705e-01 3.712550876705348335e-01 -1.316205660317093240e-01
3.342657742829620582e-01 4.076189527525008183e-01 -1.222924007525295065e-01
3.464013079681992346e-01 1.231362362834811097e-01 1.508681518821418377e-01
3.501600095030665272e-01 1.428500828662514766e-01 2.088651599328219810e-01
3.504280973854660974e-01 1.658280154517293159e-01 2.344563247029483322e-01
3.463616419039666772e-01 8.596817397922276727e-02 1.134970560275018331e-01
3.485843092963099576e-01 1.445060617265105374e-01 1.944183599786460381e-01
3.495718575161695374e-01 1.547361621198058146e-01 2.146793827311694602e-01
3.516563775813579262e-01 1.875129099044203773e-01 2.685686260549724480e-01
6.696050584527850624e-01 2.612809777249395782e-01 2.659363396785408007e-01
3.240101386778056480e-01 1.844401344917714347e-01 1.768910354321449885e-01
3.179448203875124279e-01 2.300570985056459850e-01 1.477306305170804079e-01
3.261683626087009680e-01 1.753601400367915675e-01 1.882541169910877943e-01
2.967647488386929155e-01 3.268918509124219551e-01 3.740397069595753632e-02
3.133250933666527072e-01 2.494051048055291320e-01 1.233977533374726737e-01
2.201583668723702258e-01 1.257646987384557491e-01 -1.326376159879565364e-01
2.322332639428973111e-01 6.443447916448116763e-02 -7.030462508171797520e-02
2.437063310733437460e-01 -5.415298991203298939e-03 -2.259179452270270588e-02
2.147583109554648262e-01 1.482910274362563841e-01 -1.653884819182753485e-01
2.236052110746502841e-01 1.146487251430749754e-01 -1.084880142018198879e-01
2.133946190230548434e-01 1.493042773640155807e-01 -1.783091209295392388e-01
2.109626789470016861e-01 1.647750177043676156e-01 -1.877616801241040190e-01
3.402315576779842421e-01 5.203469040499627551e-01 6.663490319572391851e-02
-1.417093981207907527e-01 2.209236120574176176e-01 -1.505230812922865313e-01
2.132894662110507433e-01 -4.704621681749820983e-02 7.243278736323120748e-02
2.833100109641253916e-01 -4.506745412588120114e-02 6.076770448386670243e-02
2.286250354354083525e-01 -4.542622189760214813e-02 7.105811928808689060e-02
2.993093289856612604e-01 -3.257794747844339200e-02 7.007421143107114836e-02
3.619295699851214909e-01 2.900812142908570923e-02 1.191331625944376110e-01
3.760268019013106588e-01 1.155646024450657228e-02 9.903164814524353932e-02
3.541726250867545667e-01 4.223442428067322729e-02 1.337978328461200128e-01
3.575904360572993990e-01 7.123834874600171174e-02 1.619785937370359918e-01
3.581749312667548701e-01 1.250858597417175422e-01 2.154195018503815284e-01
3.751946392302215050e-01 3.743138992771502527e-02 1.249279035355895934e-01
3.553812422995269449e-01 4.817280086681244300e-02 1.394685996939986905e-01
3.811683784048259249e-01 1.288832275518774773e-01 2.147193687807023577e-01
3.634552015487849674e-01 9.197967757493255569e-02 1.814652625955641418e-01
3.636533355180919247e-01 7.911671609669920779e-02 1.686336677639186654e-01
3.901438472144305725e-01 5.639807867348189951e-02 1.408808300000429226e-01
3.598689767043292687e-01 -5.301708203554189591e-04 9.015668764770032317e-02
4.243615837137401092e-01 -1.091521464556455268e-02 6.727132387444378914e-02
3.566112261469662204e-01 4.081255580627918267e-01 1.795490723556280310e-01
3.497256539373099771e-01 4.778580455408990568e-01 1.093860760193318266e-01
3.584657476471364568e-01 3.710340892827510562e-01 2.168695334827900056e-01
3.172907963991165037e-01 4.476976417000592123e-01 1.397326817805320254e-01
3.344424638125300664e-01 3.573040618297457782e-01 2.306843263031542468e-01
3.688912664079666004e-01 4.371215563653409464e-01 1.503740608634799858e-01
3.260850612300634221e-01 4.816556054089963235e-01 1.055650710990280045e-01
3.371587448994815550e-01 3.478697219002246932e-01 2.401769112050533561e-01
3.469645625397563271e-01 4.086170470157265422e-01 1.790545490954816299e-01
3.123097504264116253e-01 4.778672693397104654e-01 1.093767953065782894e-01
3.669062139979004655e-01 4.582327326446771765e-01 1.291325500911474355e-01
3.435135456766187922e-01 4.589092878770828499e-01 1.284518180155754252e-01
3.636722699879110232e-01 4.610845004402100988e-01 1.262631762819737269e-01
3.013376253521442560e-01 2.127728397913277170e-01 -6.176592503629625697e-02
3.102125602746009791e-01 1.678157298669218922e-01 -2.665928319945931602e-02
2.907950058038532570e-01 2.669401522035896868e-01 -1.262963776441663744e-01
3.068067173291743055e-01 1.847798552212119028e-01 -3.055036548629404269e-02
2.970126252518594523e-01 2.356211303943395730e-01 -1.086852058407664356e-01
-1.600361919602751870e-01 4.079138457421958019e-01 -1.933720544703304567e-02
2.328037853956222425e-01 5.343705378076434309e-01 5.252469153717160416e-02
1.608571445791423526e-01 5.224948232372105261e-01 6.447372350610795777e-02
5.444117865455151417e-01 5.738026790197193749e-01 1.284910705991089072e-02
3.901175171895325255e-01 5.381592024579644473e-01 4.871263660028577608e-02
2.940223097872733948e-01 5.264381950837373481e-01 6.050600627422332567e-02
3.536626273360848338e-01 5.325409389528632520e-01 5.436558572247625343e-02
4.316517484916746472e-01 5.661382511381805038e-01 2.056085306845607460e-02
5.021141304029523855e-01 5.704905633537471488e-01 1.618167083643377510e-02
5.187149215973914096e-01 5.744400095576047693e-01 1.220784184306862238e-02
4.449909309753775633e-01 5.477757221823931211e-01 3.903674712836741750e-02
2.962096334543824483e-01 5.320732035520672198e-01 5.483620883867144913e-02
2.727048138837516178e-01 5.458459306456149296e-01 4.097845280177889876e-02
4.436855470606684837e-01 5.535120108011365447e-01 3.326504427000879366e-02
5.234361629655956971e-01 5.685309209980070611e-01 1.815341145791114427e-02
3.366344377081096351e-01 5.323710216736793344e-01 5.453655203759673331e-02
3.921078783307969662e-01 5.447997017347812054e-01 4.203114073753359131e-02
3.513185321377217951e-01 9.169799796640870637e-03 8.774461185440418642e-02
3.482738197590410922e-01 3.165396715849638776e-02 7.900865351185201724e-02
3.482013266071677382e-01 6.368018799632785276e-02 1.101203033570945372e-01
3.515154946635663524e-01 1.863600556582212242e-02 9.917106601580980008e-02
3.522130702759325716e-01 1.790416673377156209e-01 2.658293547712266558e-01
3.515811488388478900e-01 1.746956657996773798e-01 2.550527109716832497e-01
3.800728577473759806e-01 3.799175502926110948e-01 -1.277403146201372408e-01
3.799169290810823774e-01 3.493764623779058165e-01 -1.597079455512761814e-01
3.773714619936049397e-01 4.823311605572701000e-01 -5.347491115570067455e-02
3.810125331310928454e-01 3.272995371943712151e-01 -1.704746229362487930e-01
3.799306070342660102e-01 3.763402040278911453e-01 -1.327511189025640526e-01
3.791578026793897549e-01 3.117974855846166182e-01 -2.048360941362381005e-01
3.815145140129327928e-01 2.746826478970050833e-01 -2.176783064156770364e-01
3.805625284713506917e-01 3.654714047157764378e-01 -1.371065440303087246e-01
6.667285848982632546e-01 2.179449874117972419e-02 -1.627429079636935616e-03
1.953498607154190436e-01 3.693823766130208686e-01 1.495218907177447987e-01
2.169357645963132519e-01 3.828254011647402866e-01 1.359958726762980352e-01
2.135847699786722620e-01 3.509199040776491141e-01 1.680983453768491731e-01
1.938695573805272465e-01 3.949259324206411681e-01 1.238206361458450422e-01
1.795203888328373298e-01 4.249381654074788073e-01 9.362311604306100543e-02
2.089287967497110432e-01 3.513420378594100391e-01 1.676736054631322581e-01
2.371551985222101200e-01 3.011482119061053009e-01 2.181773140282183832e-01
2.169450379447638855e-01 -7.323484391137957683e-02 4.567481911756099411e-02
3.127626255016028867e-01 -4.702237153455618435e-02 5.308895698465408708e-02
1.685975023552775398e-01 4.282828959660232027e-01 1.432525334312766963e-01
1.613673363023996332e-01 4.558271064959465990e-01 9.680001588128507584e-02
1.729142643800377910e-01 3.967384110091626281e-01 1.559698103704303396e-01
1.679423283977806713e-01 4.350094040350616087e-01 1.432506964846700370e-01
1.594141245877742641e-01 4.784252322141826497e-01 9.932568778894841632e-02
1.604085117842257158e-01 4.712432170836627354e-01 1.023391264983266324e-01
1.763624763776361903e-01 3.938538511984050472e-01 1.883200371380895355e-01
1.773171975098550290e-01 3.812946251206099646e-01 1.855803655799478369e-01
1.584881271572411154e-01 4.576077349404990002e-01 6.916350118838250627e-02
4.159597035153210776e-01 1.494052130597829930e-01 9.539283956289282967e-03
3.830218244537711425e-01 4.618096174520254227e-01 -1.617359774410724593e-02
3.914816384978592745e-01 2.878077166742086246e-01 -1.028231019985675898e-01
3.855194187051058097e-01 2.870210973560810008e-01 -1.645019388371705971e-01
3.897500096248090462e-01 2.947972079467773288e-01 -1.135580040991306383e-01
3.933732994231581848e-01 2.880127855366468315e-01 -8.329823691666127239e-02
4.028411786168814013e-01 2.425791463410854332e-01 -3.178247785389423652e-02
3.868995241813362185e-01 3.047121377265453179e-01 -1.328110723984241570e-01
3.997034561565518951e-01 1.721365508013963930e-01 -1.338898807412385872e-01
3.979663561022281915e-01 2.468194240581989274e-01 -7.735537120401859978e-02
3.989963059769571219e-01 2.770745634257793522e-01 -3.674511853098869074e-02
3.937220872293413221e-01 2.528532529401779083e-01 -1.147041622269153738e-01
3.929697998042405160e-01 3.525057934951781879e-01 -2.327715140581131797e-02
4.015622899942100643e-01 1.868874009639024947e-01 -1.002336153888702397e-01
3.858736776925623668e-01 2.976340135329961778e-01 -1.503284262454509801e-01
3.936509618727863091e-01 2.917567277479171661e-01 -7.673868384242057972e-02
3.923898545892536838e-01 2.492038539958000010e-01 -1.319407798409462096e-01
3.893273608714342693e-01 3.254843476945161740e-01 -8.735454824626445736e-02
3.878679232667386900e-01 2.376827285248040988e-01 -1.895850373911857623e-01
3.832762343829870799e-01 4.320664125400781597e-01 -4.315659718692300972e-02
3.911287473057210584e-01 2.683467849957942852e-01 -1.257825478780269512e-01
3.993683463035524461e-01 3.054560180288553584e-01 -4.718071854114533337e-03
3.913311810128390911e-01 3.414447514402866313e-01 -5.101445561528206163e-02
3.822312387597561201e-01 4.754381020104885280e-01 -1.069404707968237001e-02
4.108783439075947008e-01 1.990964499759674267e-01 7.060692088007927691e-03
3.908059476105869012e-01 3.275925488078594294e-01 -7.015592700600624398e-02
3.851651597176492525e-01 3.268098676860332619e-01 -1.285478288733959140e-01
3.892384541757405447e-01 2.605131534492969303e-01 -1.528805243206024234e-01
3.810385212421417700e-01 3.781073827642202345e-01 -1.196776143330335884e-01
4.033376883174479288e-01 1.728894885319471331e-01 -9.602197620749472473e-02
3.958339632008970321e-01 3.084259879702329621e-01 -3.786348119735717666e-02
3.973672617527842510e-01 3.061002386915683826e-01 -2.451588871657849056e-02
3.864153246386349272e-01 4.383673151177168159e-01 -4.828140431642556629e-03
3.888869307789206697e-01 3.453651738226413692e-01 -7.208025942981244327e-02
3.911396896682679536e-01 2.925949026405811337e-01 -1.015545193517208011e-01
3.872455763968825626e-01 3.074192365145683170e-01 -1.265842103046178890e-01
3.860419165167212618e-01 3.525509435147047288e-01 -9.399176658928395933e-02
4.072687320624291951e-01 2.133759080088138693e-01 -1.560509153723717291e-02
3.880936094942689096e-01 2.739578793567419290e-01 -1.512020382553339037e-01
3.909577728909254257e-01 3.836000272488594431e-01 -1.290229233324528130e-02
4.190263006190956263e-01 7.613822399556638421e-02 -3.200791835069655145e-02
3.950543198694289049e-01 2.429752334213256815e-01 -1.109214064550399781e-01
4.049092851382494196e-01 2.576512715440988366e-01 4.330769971013066766e-03
4.106417153175175305e-01 1.970927370524406530e-01 2.651014344692219360e-03
4.157312816971540648e-01 1.039059633016586326e-01 -3.804559777319431457e-02
3.854633390970528262e-01 2.708447698980570029e-01 -1.811630878770351394e-01
4.000604507346451344e-01 2.678986834740638701e-01 -3.500221801519394493e-02
3.901261533373594492e-01 2.558963841325044841e-01 -1.484054711979627683e-01
3.897978824609518167e-01 2.526093127733469168e-01 -1.550275384348631103e-01
4.205459212177992123e-01 1.075803193122148727e-01 1.478419996559619809e-02
4.019698929990828118e-01 2.829796352422237482e-01 -5.007452797889735963e-04
4.167954264548421328e-01 1.215580453336238820e-01 -9.620614861845976085e-03
3.307400515729189139e-01 1.731604977872967799e-01 4.066057930752633998e-02
3.284489944146573581e-01 2.101386874470114741e-01 5.403746052369474973e-02
3.482806587356329087e-01 1.180294599980113990e-02 5.933542561456559006e-02
3.133581086671352600e-01 3.567287877181172240e-01 4.569625180765986977e-02
3.324251754051447127e-01 1.539515617397427538e-01 3.876749115750193625e-02
3.208919252806902156e-01 2.794164303424954143e-01 4.575264594838023002e-02
3.362221752089262217e-01 1.126036029782891135e-01 3.642589134737850287e-02
3.425687454861402470e-01 6.993127370208501725e-02 5.880774328395724920e-02
1.895786045198142589e-01 3.567383203427493266e-01 1.622440078579634459e-01
1.742216803525388213e-01 3.741146525041758597e-01 1.447603990971296772e-01
2.066242540928721616e-01 3.028592179396748518e-01 2.164557447476684882e-01
2.268197784669697126e-01 2.768101020760834197e-01 2.426656805462389932e-01
2.267770526476204362e-01 2.895003205154835779e-01 2.298971162494271858e-01
2.034896578921377708e-01 3.401463221935927539e-01 1.789384403490275055e-01
2.165865842586755796e-01 2.807596597230434532e-01 2.386917394441366025e-01
2.096787773966789503e-01 2.429435690328478892e-01 2.767412961016595396e-01
3.792818121095001827e-01 5.543282565982640131e-01 1.485447961308063169e-02
4.626070529015362531e-01 5.627844375222921247e-01 7.041152768731094580e-03
5.790305732662976990e-01 5.808566081643105061e-01 2.347252197265635443e-03
2.938860713382065448e-01 5.509525176562368731e-01 2.812375193722546976e-02
-7.106679342672228561e-02 5.180958954271674965e-01 6.650256066277622502e-02
2.684852964730560787e-01 5.447513896031678238e-01 2.690190509654583756e-02
1.660797544367611511e-01 5.405427670174837163e-01 4.265465180963275149e-02
3.603699247391521920e-01 5.596769499182701058e-01 2.385625654995439035e-02
1.170118769378959978e-01 5.331799442957341206e-01 4.488544100783763841e-02
2.550419066555797976e-01 5.267253015422821427e-01 1.159128006935119387e-02
4.360324130967258016e-02 5.241077610059082792e-01 5.015533988125624176e-02
3.794304125864803590e-01 5.342146562933922649e-01 -5.178683777153476886e-03
2.984629660291969744e-01 5.294973954014480233e-01 5.894166940376172059e-03
3.711385059709846890e-01 5.497356371448933743e-01 1.187234464697539682e-02
4.152926610310375688e-01 5.390374739128351855e-01 -7.364514400959004670e-03
1.746985821016132645e-01 5.375104527476430860e-01 3.796072972908617893e-02
3.245274896915256724e-01 5.294673363700508339e-01 7.894766633212355056e-04
5.654288631404935650e-01 -3.713954219758514030e-02 6.462954622209075850e-03
3.332815951293707224e-01 -5.156921883150933361e-02 2.098171623535451460e-02
3.989369426366686788e-01 -4.823972535893317204e-02 1.763166734702882946e-02
3.072562775874138064e-01 -4.291601549819112904e-02 1.227509046785531591e-02
4.290084615866839868e-01 -4.482233963519333120e-02 1.419318361505863060e-02
2.471034035629033898e-01 -6.268805362030865913e-02 3.216919567056000101e-02
4.786842978017031847e-01 -3.583258769318464765e-02 5.147931418791405755e-03
4.372727653729915342e-01 -5.155360761612653997e-02 2.096600855395196542e-02
4.839865526516735628e-01 -3.775016302153466619e-02 7.077345316186554880e-03
6.113039909042418119e-01 -3.415527538567780796e-02 3.460263743847592777e-03
3.457719770765304568e-01 -5.977488255694507480e-02 2.923803942196073063e-02
-7.673342494890089682e-02 4.960551373597979485e-01 4.568495140895245665e-02
1.247639473155140455e-02 5.129607892875374109e-01 4.512941604815420144e-02
2.886710617095222808e-03 5.017402104638517546e-01 3.583697343371809729e-02
8.247712608769536269e-02 5.010557132811844783e-01 1.965984685339033922e-02
6.095977702096103124e-02 3.720961248172819369e-01 -1.044090573864430160e-01
2.826320618815720276e-01 5.135502553541958504e-01 -6.883962584659453210e-03
3.218526811058819437e-01 5.248751444840431546e-01 -3.256956234574330533e-03
1.561730559714138433e-01 4.505373734951019227e-01 -4.493248251765967483e-02
-6.553885568305850562e-02 4.701109671646356847e-01 1.770225874722002393e-02
2.496874149635433526e-02 3.373416412305831891e-01 -1.319670614546537557e-01
-1.098911447124183427e-01 2.900092916785180774e-01 -1.527846517745405364e-01
2.172379453118145620e-01 4.442853624659777179e-01 -6.303990642249583665e-02
2.473098073318599766e-02 4.974354944574833071e-01 2.730255857110022721e-02
1.879933714421093416e-01 4.255936359906196675e-01 -7.593604049563409952e-02
-7.915065937444565325e-02 4.091962155988812522e-01 -4.023102822110057042e-02
-4.364505207464097758e-02 4.641874976906180672e-01 7.548248310834171360e-03
2.910824756725132190e-01 4.865095267239213372e-01 -3.542296060755850684e-02
5.918160347491485673e-03 4.677558294852078302e-01 1.447158773317927527e-03
5.496622444942592112e-02 5.133238824027777092e-01 3.721771290034055213e-02
-8.230098948642611267e-02 4.885156569457054232e-01 3.927047927230595953e-02
-2.477279149815436732e-02 4.713910582117736281e-01 1.103818652950227033e-02
-4.234727457568049358e-02 3.908842974419892147e-01 -6.560903770230711030e-02
2.461655048306286286e-01 4.628044419157505418e-01 -5.025375750780104733e-02
6.552676501348617122e-02 4.448853076931834627e-01 -3.290487075522542659e-02
2.280908123090863437e-02 4.749012833389639754e-01 5.265075551122426478e-03
-1.203328048948943407e-01 3.728447245486080641e-01 -6.836664039634170187e-02
1.284243935699760919e-01 4.289000502412021465e-01 -6.104945220328868161e-02
-8.347988660380240011e-02 3.677956312020123075e-01 -8.056358716689052124e-02
8.997649682596325915e-02 4.015422375032305924e-01 -8.077265163227917433e-02
-1.060869725017249965e-01 5.026422724108398077e-01 5.795143996439874878e-02
1.733116443164646747e-01 4.961267826482653742e-01 -2.927874252349152440e-03
-7.880392492815851968e-02 2.802090139682590908e-01 -1.685843593289703124e-01
1.697551395674049834e-01 4.629334443108737984e-01 -3.524826483137906419e-02
1.527008369877932981e-02 3.405666454155743539e-01 -1.268712529786676368e-01
3.933345427110790382e-02 3.773791789916157713e-01 -9.494405878171327529e-02
2.346292332962154892e-02 4.049952615267038425e-01 -6.438812949419021880e-02
2.403799929268658209e-01 5.069854186362028337e-01 -5.186572782397265435e-03
-3.763168610617523280e-02 3.045564385087788373e-01 -1.523856115668267008e-01
-8.519374543830748880e-02 2.605864134418964806e-01 -1.868561542207002601e-01
5.824534164145589443e-02 4.978680906526744554e-01 2.120751534871755106e-02
6.099940381482243934e-02 4.386168783767521173e-01 -3.825773211978378274e-02
1.686951228316128093e-01 5.079358635616302298e-01 9.715836053192612037e-03
3.515282751873136102e-02 4.204614327532053553e-01 -5.128209571033716385e-02
-2.557523407384748593e-02 4.384019222906232471e-01 -2.161533128306270674e-02
-5.153078405305738796e-02 2.962345360025763763e-01 -1.579560915376246044e-01
1.967707062824070596e-01 4.305102799692750448e-01 -7.275508908346295378e-02
3.466739929392934072e-02 4.561611765770614557e-01 -1.568195915974677362e-02
2.700010213382542101e-01 5.126046619203686872e-01 -5.365135193616164810e-03
-9.311910421058533505e-02 3.928418635135889625e-01 -5.377677864015102671e-02
-1.216900225846469508e-01 3.790296963763237215e-01 -6.195104799240828963e-02
-3.997957364246251810e-02 4.852252719730139052e-01 2.775795455783604260e-02
2.333957705087959800e-01 4.535360567460954284e-01 -5.698546203441920421e-02
1.082642621929943427e-01 3.925240783202648132e-01 -9.330242404460908912e-02
1.572330727072060175e-01 4.997164148657023963e-01 3.772756593152862270e-03
-5.082740846201777574e-02 3.834371425648033793e-01 -7.136460550986230278e-02
5.738345887497067754e-02 3.491173206102848314e-01 -1.265665986406803167e-01
8.352723612502216399e-02 5.194071577332914913e-01 3.770704587452114454e-02
3.370891833455860742e-01 5.034647818705439981e-01 -2.751746362611653951e-02
1.845013390615579674e-02 3.146507859304547572e-01 -1.532653521914780215e-01
8.513715345412481428e-03 4.103963596038520678e-01 -5.610577128805220581e-02
-1.204120584826171569e-01 4.501375589121878740e-01 8.521337619200340663e-03
-7.606967615172272046e-02 3.656170089454949257e-01 -8.417314001314343819e-02
2.038936224789917318e-01 4.264957900311052708e-01 -7.813459036312998818e-02
-9.513016399905088738e-02 4.701735794968903148e-01 2.352599460698663950e-02
6.264894793778646997e-03 3.416541935330629776e-01 -1.240362971931695812e-01
1.735049037650227000e-02 4.893296482323110652e-01 2.067777916960415741e-02
2.682129410937428293e-02 4.813039169935882100e-01 1.085171151421962174e-02
-9.759693191692231373e-02 4.564202877050638207e-01 1.032777038007974893e-02
-1.224924651603400694e-01 4.874332787005603573e-01 4.601931612275538680e-02
-1.384570309087634898e-02 3.528062526240944852e-01 -1.090293204312026420e-01
2.419848780782520858e-01 4.917353711214662026e-01 -2.066616982266306080e-02
-1.214662547558587047e-03 4.863531602706014922e-01 2.133213416613638155e-02
7.924754238799217032e-02 3.413121508114039804e-01 -1.385862909389287134e-01
7.760303044274449724e-02 4.590987263472378066e-01 -2.112000258974731925e-02
1.637417735989391554e-01 4.591507361137867615e-01 -3.783959447145461563e-02
-2.353932871073494137e-03 5.044206472036243394e-01 3.952319475308058855e-02
8.007970505908132419e-02 4.046274330084026483e-01 -7.577731468655168889e-02
2.423910527153313177e-01 4.880314613668620405e-01 -2.442902191616595775e-02
-5.817817872330549589e-02 3.648412224410474414e-01 -8.842820457704367310e-02
2.787140414670111199e-02 3.185737078978121417e-01 -1.511980943443626269e-01
-9.616046063944699851e-02 4.455353733612597011e-01 -7.776389273256092971e-04
8.786637005284428370e-02 3.851720512773096905e-01 -9.664297914944591783e-02
2.467202799446880923e-01 4.514225146573782599e-01 -6.168180985152722784e-02
-8.904745114132767148e-02 4.829529557798802886e-01 3.505157017253340140e-02
1.356760968466103057e-01 4.343559423683583942e-01 -5.703514252074064206e-02
1.259774390490353002e-01 4.063289231854677608e-01 -8.302142157107592069e-02
1.055498268134892059e-01 3.725572527876496176e-01 -1.126321741749346239e-01
1.637913070912659086e-01 4.944346100576221814e-01 -2.757224170789149276e-03
-9.553633863613009147e-02 3.805184502977133065e-01 -6.556254362314940798e-02
-4.968813813850281313e-02 3.514239364928007370e-01 -1.034255540651083105e-01
7.929220135957010251e-03 3.226735837143659413e-01 -1.432377443289756802e-01
-1.035706710915267337e-01 3.377434569473564685e-01 -1.065406495159119393e-01
-5.705872179672122346e-02 4.653706837093830595e-01 1.133665857434270480e-02
-6.704467384979129196e-02 3.469556707412004837e-01 -1.044901844274997715e-01
-5.685068112894892112e-02 3.351718018306791835e-01 -1.181947603067010633e-01
5.977097320511934320e-02 3.812610397465527323e-01 -9.506251599185169820e-02
1.944723522384464720e-01 4.811704118785262163e-01 -2.192293409839273649e-02
1.866811242593824915e-01 6.668698355838653669e-02 -3.167596060551704229e-02
1.834380815595388348e-01 8.126460311576724771e-02 -5.030116622306407548e-02
1.603797880825400535e-01 1.893559379170834944e-01 -1.783087399420887342e-01
1.613646007117628955e-01 1.837258473078906551e-01 -1.738496074793487722e-01
1.760082173901796332e-01 1.064322353045642489e-01 -1.011570016083866430e-01
1.697956910541653652e-01 1.370410758762061754e-01 -1.341676574490219265e-01
1.597697513705492178e-01 1.845082738701999125e-01 -1.893607937703281618e-01
1.660930691273510562e-01 1.500512478904426072e-01 -1.590458049611002123e-01
1.877589469702541924e-01 6.243252659723164122e-02 -2.489869490183888034e-02
4.286036034382879611e-01 2.901163038527965199e-01 2.786266071486472873e-01
4.229929070423543713e-01 3.186028502213955060e-01 2.496521249544620402e-01
4.159679102872312351e-01 3.632284003889560409e-01 2.222836091625690347e-01
4.234962557195127153e-01 3.092695533680915876e-01 2.455106455695628964e-01
4.274779078912734898e-01 2.788189830499887556e-01 2.558931677919625836e-01
4.241787855833769050e-01 3.017298588114976643e-01 2.449831236106157495e-01
4.243825870858133342e-01 2.953933431822061695e-01 2.407626366209983659e-01
2.162937069427967041e-01 3.517409184615314377e-01 2.362818150603026301e-01
2.167041148132085870e-01 3.169709419561922426e-01 2.712664516703039430e-01
2.200759399601817101e-01 2.842965383358299625e-01 3.041425779122859385e-01
1.929579103046655808e-01 3.407888684414327463e-01 2.473014799918979434e-01
2.155202950006723517e-01 2.942563334445655321e-01 2.941212938194722182e-01
2.000246703872084475e-01 3.188344693244993810e-01 2.693914194194227951e-01
1.954570333300530982e-01 3.864230041527748072e-01 2.013856118947267571e-01
1.646651773224770965e-01 4.684731296417117274e-01 1.188289319173991831e-01
1.291646251633763176e-01 2.293731613355875221e-01 -1.666562737286090834e-01
7.148782669812442370e-02 2.801813178893923784e-01 -1.048946480117738389e-01
2.164722671896221473e-02 3.255626204542815816e-01 -5.005608469761907431e-02
6.571222149282693326e-02 3.009100614683329900e-01 -8.315410153187810516e-02
1.355841657689213775e-01 2.366552392113208669e-01 -1.606636852639913571e-01
-4.308323260247659547e-03 3.536719685642421562e-01 -1.704600644953548766e-02
7.153726864159104526e-03 4.670479532384872456e-01 9.348181034952401935e-02
9.501623555332422422e-02 4.803980982066691219e-01 8.965242453642188747e-02
1.592115500599144973e-02 4.805210723967849873e-01 1.051746391422301447e-01
1.375555987635254662e-01 4.635164261703192956e-01 6.458008205167949101e-02
1.267275773409008988e-01 4.803149215528368932e-01 8.339546306088566063e-02
1.045761995723843707e-01 4.819239708635211228e-01 8.930866340741513976e-02
4.484934880170226013e-01 5.116890262120962207e-01 6.336679475605490330e-03
5.398798740532995133e-01 5.161136254140734625e-01 1.884763960093273349e-03
4.693255390265584359e-01 5.102723029899597362e-01 7.762149133086180403e-03
5.399078123475611335e-01 5.200940103378891566e-01 -2.120194746404895081e-03
4.301991405977309002e-01 5.067991626186668652e-01 1.125673173375427508e-02
4.424045691415667836e-01 5.239616369806230356e-01 -6.011698952391751616e-03
1.885893395319581112e-01 2.097412002883851379e-01 -2.419419601670652620e-01
1.713195426791906395e-01 2.064239867508411153e-01 -2.386042670670151522e-01
3.278033222433924809e-01 2.074919668306410281e-01 -2.396788406874984512e-01
3.054075623890757374e-01 2.024093299013376146e-01 -2.345648249614238900e-01
3.218699246960878280e-01 2.157237735112011168e-01 -2.479614682339876808e-01
2.528508384044468316e-01 2.061680382959544533e-01 -2.383467385260015781e-01
6.706459506900608325e-01 2.250153657942982610e-03 1.894541110552846672e-02
3.294878977617621274e-01 4.260432615996897487e-01 1.615207499537616997e-01
3.309391337908804687e-01 4.975903549875319021e-01 8.953194483168422368e-02
3.105773148438334408e-01 4.927412290081382151e-01 9.441100797489285212e-02
3.461541362147033118e-01 3.786878954817354814e-01 2.091684748364240065e-01
3.210610884532332232e-01 5.094159551942348818e-01 7.763333668679001098e-02
3.320630662406980904e-01 4.544363850264251381e-01 1.329523353262990759e-01
3.520964379625022289e-01 4.403471817448735282e-01 1.471285213895142108e-01
3.570332851091027049e-01 4.521486597198248192e-01 1.352541843879223049e-01
3.215026786886155952e-01 4.992763878314196990e-01 8.783550290070477051e-02
3.039309671382606215e-01 5.009534648631512876e-01 8.614807207934560562e-02
3.731014747059345216e-01 5.028816933780908549e-01 8.420793916344643248e-02
4.121038885128498475e-01 1.293221685868501947e-01 -4.981680503785609893e-02
