1.111629133988171897e-01 8.588239517129955813e-02 4.504177286759018795e-02
1.207408916879445238e-01 -2.699972153422981469e-01 2.137128406830132166e-01
1.210413173798472186e-01 -2.830966866174340346e-01 3.498315539379417971e-01
1.214596361926942869e-01 -2.620591389076412092e-01 1.305162728495895819e-01
8.587116376094519610e-02 -2.802206741353124864e-01 3.476440126277506315e-01
1.109357055179029800e-01 -2.685523907692730639e-01 2.064096833224594862e-01
-1.679646841426938597e-01 9.596224407643078047e-02 -8.587993566319346295e-02
-1.700363735885173366e-01 1.285494436241686467e-01 -8.346844540551304203e-02
-1.782931253918260406e-01 9.497587570801376000e-02 -8.759818419024348324e-02
-1.857357492676377508e-01 6.337755376793445528e-02 -9.143296722024679690e-02
-1.720315866577625252e-01 1.836713047944009414e-02 -9.304704165846108821e-02
-1.943023704404383822e-01 1.553651163344084984e-01 -8.505622911408543263e-02
-1.775232462747395046e-01 1.494829617517441644e-01 -8.289404372572899138e-02
-1.933577768860012258e-01 8.200469306394457536e-02 -9.107385515108704088e-02
7.999864446423947395e-02 -1.564543917566537656e-01 -4.381192661838232971e-01
-1.256289135436713666e-01 -1.453941221699863451e-01 -4.464819282737374495e-01
3.522799600295721534e-02 -1.409425700315088126e-01 1.117245102660358314e-01
-1.583428990289569363e-02 -5.711113556273281211e-02 1.106871443408727895e-01
-1.008014453575760139e-01 4.791015055745839746e-02 1.060629027055204066e-01
2.522986360713836036e-03 -8.626161012999714051e-02 1.111431061200797710e-01
-7.732820338293910911e-02 4.334247294709086401e-02 1.093954883164167668e-01
-1.617652021864056933e-01 1.587595032323151911e-01 1.057291260293126145e-01
-1.187283288635314002e-02 -6.293543156243860959e-02 1.108247408877313378e-01
1.523770763078332036e-01 -2.356122546863555767e-01 2.596391924679279373e-01
1.535893058574944736e-01 -2.345970863629132375e-01 2.522054762716591236e-01
1.508363318273425180e-01 -2.338772188018262144e-01 2.708993241673707808e-01
1.715353764885663990e-01 -2.193241182769089803e-01 1.423016351142525615e-01
1.389010582858324072e-01 -2.378517071747779654e-01 3.476953650337457069e-01
-1.865734453702718176e-01 -1.745633768657594842e-01 -4.044440904040634832e-01
-1.973829461444169542e-01 -1.604495140274613818e-01 -3.242830273927748141e-01
-1.849054287705570454e-01 -1.561490143524855434e-01 -4.044809631784260229e-01
-1.889322636131942346e-01 -1.431875966390967481e-01 -3.700050450053810613e-01
-1.817607320158928785e-01 -1.471820468961447248e-01 -4.199719408206641913e-01
-2.045902170901745531e-01 -1.589985572450608453e-01 -2.756023522166908268e-01
-2.061132169955968985e-01 -1.428214803538471467e-01 -2.558105363503098140e-01
-1.873264365110546559e-01 -1.411632225126773221e-01 -3.794453964008390745e-01
-1.010536496984958676e-01 -6.497078194819390362e-02 -6.208715151548381550e-03
-9.606783645369111613e-02 -6.112606302738189668e-02 -5.593896498233073833e-03
-8.364487331479787680e-02 5.452771512098610052e-02 5.709662765562527331e-03
-7.662756096065043154e-02 1.811301446495950374e-01 1.773811333775519861e-02
-8.861774683304129985e-02 -8.469092419743536049e-04 3.483958451449969962e-04
1.446691624662279907e-01 1.451522225484251916e-01 2.111342723372578445e-01
1.283247384922951428e-01 1.480297421743720920e-01 3.212834908248484167e-01
1.465433188279718080e-01 1.499864814200997098e-01 2.015967263327538839e-01
1.492194290067255236e-01 1.284009142672270232e-01 1.709162247040867944e-01
1.488284739918261657e-01 1.405491824932396383e-01 1.807853956694901176e-01
7.608331063881516865e-02 -1.664961633135378372e-01 1.567003183901309604e-02
9.542467052236200398e-02 -1.497045116528868645e-02 3.266950966715813365e-02
7.174218774847687663e-02 -1.409975801672041507e-01 1.616113473430275116e-02
9.260739467345177611e-02 1.721088290058076647e-02 3.412623599067329816e-02
8.458962579607963439e-02 -5.569338426291942784e-02 2.634186701357364713e-02
2.121089965111762343e-01 -1.551375114015489942e-01 -3.920482522432505723e-01
-6.751802276641130640e-02 -8.027994302496313517e-02 1.405896860450506214e-02
-1.463995354571938357e-01 -3.718050296738743821e-02 5.192702041566368831e-03
-1.466003609381616273e-02 -5.342135204322635833e-02 2.468602332487702944e-02
-3.942582759201526676e-02 -4.144144832774997178e-02 2.177190828472375106e-02
-8.909117455072701475e-02 -1.522970304524153551e-01 4.588982567638157095e-03
1.586128973759710903e-02 -4.690251040317118536e-02 3.006655910864472481e-02
-1.653467650903761577e-01 -1.310714151432365027e-01 -5.700380650162699403e-03
1.316453551925718668e-01 -1.644000289421528593e-01 3.852127946019172355e-02
-1.176014656413346543e-01 -3.259480627752840698e-02 1.013787688359617939e-02
-1.421338107331097111e-01 3.544968912906944214e-02 1.197390231907367181e-02
8.891041986741125835e-02 -1.367264753586053816e-01 3.408138261213898568e-02
-1.507829384044557797e-01 -8.624449047960340564e-02 3.740080468356624110e-04
-1.335389947714656633e-01 -1.448663504655659240e-01 -1.823875887244939820e-03
-1.497710886913538042e-01 -1.434109024955332323e-01 -4.271588281095028972e-03
-1.869410307053476494e-01 6.077188354559243111e-02 7.008223978728064796e-03
-1.020926073751598634e-01 8.738886587843299608e-03 1.606822947308422095e-02
1.608360657703876706e-01 -1.775289578165859250e-01 4.203940782338380644e-02
-4.772273314520716209e-02 -2.883965501032769579e-02 2.151763290405274420e-02
-3.837240341991186160e-02 -1.561463939916342414e-01 1.229580643147230173e-02
-1.861437586330622340e-01 -9.037405138090252865e-03 1.265805165320633974e-03
4.355259557209909677e-02 -1.694290220257639867e-01 2.415056365177035980e-02
-7.565050778426229972e-02 -2.155123919330537152e-02 1.770847427532077495e-02
4.413747955411672502e-03 -9.378968592889606881e-02 2.431238050878048451e-02
-2.011617054674774696e-01 -7.921778647206721702e-02 -7.011872863322492211e-03
2.068752411790192314e-02 -1.241312167817354151e-01 2.433832813099026660e-02
-8.634617018498480512e-02 -7.199415969491004819e-02 1.177442201301455438e-02
-1.283814496231824309e-01 -1.244447623501717809e-01 7.095112501084854806e-04
-7.414144977547228177e-02 -5.462731372639536426e-02 1.516680297419428086e-02
-5.320828485637903171e-02 -3.200217747300863197e-02 2.038322841256856588e-02
-5.821635912358763543e-03 -1.666804446861147870e-01 1.656408434361219401e-02
-9.962345538266002831e-02 3.294101855777204629e-02 1.849377542600035701e-02
-1.692142776957154260e-01 9.983661009207368819e-02 1.309899626821279389e-02
-1.664708088443428435e-01 8.474703558161853639e-03 5.852861085385088757e-03
-1.217592830175906471e-01 7.739346447400749507e-02 1.872593610987067364e-02
5.607014157459139919e-02 -1.173217016628384651e-01 3.051300022900103881e-02
-1.657463630704581747e-01 -4.960518641546368679e-02 1.084966092109673763e-03
-2.333336310828476867e-01 -1.236043393000960250e-01 -1.583717455759644371e-02
1.224313924327492809e-01 -1.481975966623425567e-01 3.842449882954358797e-02
-2.786441503562033309e-02 -1.508288964399695509e-01 1.440658785030245886e-02
-4.539948001258075488e-02 -1.105694972628354922e-01 1.501470204308629625e-02
-9.874492069296537944e-02 -3.147891012609005390e-02 1.321729009464384097e-02
-1.486392936684936272e-01 -1.173590916108339932e-01 -1.902292518466713878e-03
-1.628869816866516940e-01 -5.583967445209622738e-02 1.013584700524809701e-03
-1.967168152205645837e-01 1.867075875349342301e-02 1.921087439060213675e-03
-1.681995164331794024e-01 -7.830600977584720179e-02 -1.716237950623041020e-03
-1.227165010608732704e-01 -1.267650895351916662e-01 1.411393727660179009e-03
1.466297606311738749e-02 -1.497113257399201314e-01 2.123400525495409974e-02
-1.510255971807986652e-01 -7.714813800953328193e-02 1.100289747565992571e-03
7.166845851406454526e-02 -7.899424985677004629e-02 3.620479156196117210e-02
-9.723033108830451965e-02 -7.076168495021760430e-02 1.015471636086702489e-02
-2.128020009882002905e-01 -8.508266109675169386e-02 -9.347951574474572256e-03
1.929499356046319308e-02 -5.615703160434960817e-02 2.983222667574883524e-02
-2.007880145154148366e-01 -9.979894545197487421e-02 -8.682900387793783537e-03
-5.525294911138713128e-02 -9.273029661908746557e-02 1.495426489546895776e-02
-5.007044694423676279e-02 2.156157461695373811e-02 2.538299043685197931e-02
-1.609739300692081820e-01 -1.571104988851398376e-01 -7.197044837176799770e-03
-1.570729912564903519e-01 9.517267248556018910e-02 1.462927314326167155e-02
-1.186340112676471381e-01 -1.538872816924750919e-01 -2.222951386868926571e-04
-5.257137933224439834e-03 -1.734453449777513534e-01 -4.520710981735586720e-01
-1.371033092796802161e-02 -1.822860588934272497e-01 -4.534212471193075356e-01
-2.157442421682924105e-01 2.052062294458598113e-01 1.244842508791387248e-01
-2.284232497448474009e-01 2.013928537441045108e-01 1.741825215236842972e-01
-1.923604560438543498e-01 2.211584389553964136e-01 -6.001642975404858360e-02
-2.277865860601514802e-01 2.048024233096838176e-01 1.381891043578088452e-01
-2.294601912226527929e-01 1.985906468929350688e-01 2.041695678626000432e-01
-2.206144064443558428e-01 2.029446918526291999e-01 1.518677842329442251e-01
-1.910529464890808049e-01 2.116713311208039683e-01 3.770566764816640770e-02
-2.207723384625464580e-01 2.088386992284655685e-01 9.064016156479717812e-02
-2.258295581952482478e-01 2.091577862729877280e-01 9.130890064761043590e-02
-1.945286956552415847e-01 2.221364771337807353e-01 -6.848631656244397181e-02
6.773003365732728487e-02 1.911702057549357625e-01 4.692472667559981214e-02
-2.023342725788801755e-01 -1.966808737432211851e-01 -2.945461457590758392e-01
-2.594773513669520471e-01 -2.429661417269706747e-01 2.323355366314948101e-01
-2.531713565809279309e-01 -2.253065818076580851e-01 4.353715949073434788e-02
-2.312986938721686425e-01 -2.191020835509151221e-01 -3.830480588421224936e-02
-2.520292500681430292e-01 -2.461519520548731133e-01 2.596208246685564602e-01
-2.864235459830611896e-01 -2.462292205506563247e-01 2.875625819678604422e-01
-2.252201605080812741e-01 -2.155932197989523513e-01 -7.962549226686357895e-02
-2.606089185944944764e-01 -2.418047957630455602e-01 2.211396070577203998e-01
-2.693359996359795394e-01 -2.357064502423256713e-01 1.645461221380531969e-01
-2.249873251237720084e-01 -2.257549439092725596e-01 2.596678762987256195e-02
-2.068263144009560295e-01 -2.069833862034231586e-01 -1.837603876309096829e-01
-2.799701653435081039e-01 -2.440815711905807428e-01 2.601153665740787990e-01
-2.382646741151064895e-01 -2.355334679608792336e-01 1.382299130053818437e-01
-2.322374349393695747e-01 -2.113832445410639138e-01 -1.179115022055804707e-01
1.684739746302366115e-01 1.387956279105692914e-01 4.941059765219688038e-02
1.787632363271713098e-01 1.596725777213275355e-01 -6.343153268992901550e-03
1.439213220381737046e-01 1.083609949385374721e-01 3.386034535586833760e-01
1.585464078351855322e-01 1.057490842384844892e-01 3.542521594977379173e-01
1.533793002146482398e-01 1.149001362522691361e-01 2.630734153997897895e-01
1.421148617435991635e-01 1.051073805091530117e-01 3.738964751988649304e-01
1.351678140175342768e-01 1.137171968871354966e-01 2.897559823513031207e-01
1.654882274436205725e-01 1.561911343669146190e-01 3.338986308948695969e-01
2.121927324519306268e-01 1.796306517602503372e-01 5.306035979375242628e-02
2.110954031705111200e-01 1.746671128404885531e-01 1.055929118935763633e-01
1.430927723465114654e-01 1.550383497325331095e-01 3.635685035990178782e-01
1.895336107584089103e-01 1.676425788828730667e-01 1.957255591170490028e-01
1.638585378295928374e-01 1.590520684612542757e-01 3.054042767249047774e-01
1.575362816841155422e-01 1.580815045466274216e-01 3.204954496227204741e-01
1.413683637728541942e-01 1.598926014205068469e-01 3.143999301938712465e-01
2.068178442948311602e-01 1.728303547979891386e-01 1.280872343926131862e-01
-2.235734159930795606e-01 2.106493814738094883e-01 7.400238492831587300e-02
-2.345427361863106352e-01 2.002790886243432933e-01 1.906043250881135354e-01
-1.870801224649697447e-01 2.107152962563186849e-01 4.452268084689973981e-02
-2.015690395352989495e-01 2.120717721337080086e-01 4.183467906877398612e-02
-1.871116624107211912e-01 2.162725848501175774e-01 -1.329967439427972090e-02
-2.486041127479821367e-01 1.949852736411243626e-01 2.568035706631839332e-01
-2.080224406016618344e-01 2.144029192430526309e-01 2.266097079917787915e-02
-2.517814963381737048e-01 1.931024410316348194e-01 2.789094456289708535e-01
-2.003656493503600533e-01 2.126311727409810060e-01 3.506224773570895681e-02
-2.010386631310731032e-01 2.107013573849201293e-01 5.568120486304163619e-02
3.414156104899943034e-02 -2.012476251380145575e-01 -4.335915015248953952e-01
1.579006721422821224e-01 -1.792318125598132694e-01 -4.166462339766323075e-01
-1.885169208550453168e-01 -1.703271245294064318e-01 -3.890143274149299168e-01
-2.180275285331159940e-01 -1.423359720452874733e-01 -1.764824429638683911e-01
-1.862376138183474694e-01 -1.660875010783970374e-01 -4.015956970512867263e-01
-1.783307231194526110e-01 -1.342339468570053485e-01 -4.349713091479241456e-01
-1.896904816377908143e-01 -1.297672492413967649e-01 -3.569376662351190777e-01
-1.940446643547713845e-01 -1.357468060731142900e-01 -3.316340116798877635e-01
-1.926769771879166537e-01 -1.549595558219403202e-01 -3.522135888962447670e-01
-1.838238324831426296e-01 -1.403800007703155661e-01 -4.022119434487819722e-01
-2.006222720579803054e-01 -1.577396262706816099e-01 -3.011709804543852842e-01
1.213271711223572469e-01 1.855288082697987562e-01 6.335879098221659789e-02
-2.101697917760163570e-01 -1.602272232147306241e-01 -2.393243476261198710e-01
-2.172605413983762224e-01 -1.521232287669926631e-01 -6.168143559247254992e-02
-1.882369458934664563e-01 -1.555461141473054865e-01 -4.895165724724531708e-02
-1.192025454716384436e-01 -1.615142628157883731e-01 -4.129651384860277136e-02
-1.264468651236593799e-01 -1.590768567337095818e-01 -6.095225616723298767e-02
-1.858518170417845228e-01 -1.546896710051596235e-01 -5.974848426133394508e-02
2.710503250181674900e-02 -1.711320120221376528e-01 -5.662106753915548130e-02
-1.962928961673378603e-01 -1.547878370629996170e-01 -5.048853086084127001e-02
-2.019948113384842925e-01 -1.530183056222647608e-01 -6.440916779130696768e-02
-2.349856366924941709e-01 -1.512123412048816395e-01 -5.717781687647104788e-02
-5.552211044818163715e-02 -1.804596508067846106e-01 -4.545440180867911240e-01
6.507655334100132319e-03 -1.925856578946113506e-01 -4.528739957086742041e-01
3.492071705013513952e-03 -6.696284753881395768e-02 2.642169928908348620e-02
-1.318875999801605858e-01 7.329092527456580741e-02 1.677740682676433920e-02
-1.186518763501197143e-01 8.502808095499873875e-02 1.985975826725363408e-02
-1.017373155104368820e-01 3.762910597160458448e-02 1.855319587662816044e-02
-1.297968332231789756e-01 -1.294515666015446168e-02 9.858840070813897072e-03
-1.822973935542255564e-01 -1.001091203061491158e-01 -5.781310240775341946e-03
2.021963483892381258e-02 -6.554481310062110211e-02 2.918942540094257576e-02
-1.339338687939196637e-01 8.920603419192137118e-02 1.779135045275093141e-02
-5.355394317328929926e-02 -1.181981875702738799e-01 1.308226518541574790e-02
-4.855685100108384639e-02 -9.374457300059496623e-02 1.592920750945806679e-02
-8.199436214558779301e-02 -6.952879284828901441e-02 1.267071033909916711e-02
-1.853300627965479841e-01 -7.261199402518569990e-02 -3.949881136566392448e-03
3.170615986883643274e-03 -1.602966746069491022e-01 1.852451373070478774e-02
1.203526339635252879e-01 -1.829485377201438001e-01 3.517395880788563856e-02
-1.723310689084231739e-01 -6.739945915415884725e-02 -1.453516566753382255e-03
-1.210271563664823830e-01 -1.150748539483547189e-01 2.661634101122620222e-03
-9.558340812183917234e-02 2.893850784726441361e-02 1.879696726366877901e-02
-1.150241089282929841e-01 -1.567616255280375737e-01 1.076323235034981618e-04
-9.377266684293747434e-02 -1.454844649642705878e-02 1.542785147219895986e-02
-8.038343571551144484e-02 -1.335751114177703702e-01 7.541594654172659173e-03
-1.526627451200038288e-01 -8.147759470634162449e-02 4.771119283139696465e-04
-8.407294551730157273e-03 -1.608904115364700738e-01 1.664144097238778874e-02
-9.274157262161374093e-02 4.602133122064172577e-02 2.068302266895770403e-02
-9.408712169058620900e-02 5.914484893389045095e-02 2.157323246583342513e-02
1.140786873946338792e-01 -1.764957259093224984e-01 3.472305748715996676e-02
-1.640194499550759744e-01 -2.433665650703013134e-02 3.482640339136117147e-03
-6.329752277486026812e-02 -1.177482690916955427e-01 1.157736347630620305e-02
-1.281450847107916957e-01 -1.345399348349124447e-01 -1.017347098886955958e-04
-4.153334637716413202e-02 -1.215688026994466917e-03 2.481987597763538056e-02
-2.668240853719413413e-02 -1.684648781178891552e-01 1.311113494470715624e-02
-5.295736582778394486e-02 -1.520613506344705990e-01 1.032995045199990719e-02
-4.313962224125862666e-02 -1.364877774994075199e-01 1.319364053994417224e-02
-1.150417200299352349e-01 -8.137618155285716859e-02 6.442267059236769788e-03
7.718656107708811442e-02 -1.796711029879748678e-01 2.861489197313785149e-02
-1.740637113172560924e-01 -3.125506521023810325e-02 1.310698270648710806e-03
-5.622815284699201471e-02 -4.620068376660346754e-02 1.871146037787199679e-02
-1.383662426546215796e-03 -1.248769423654675498e-01 2.078105189666151764e-02
-7.399659301236272135e-02 -1.019759697221219591e-02 1.892480856955051916e-02
-2.522689281813800602e-02 -1.428520420788973455e-01 1.549478293374181165e-02
1.562174518652260230e-02 -1.606112645399570549e-01 2.046948509767651525e-02
-1.482591061766445617e-01 -1.387703293309360819e-01 -3.642073604464529657e-03
-9.248075699932872817e-02 -3.949987825177609518e-02 1.353481237515807845e-02
2.125047122465819061e-01 1.877291410363465529e-01 -6.735025515004991470e-02
2.001669100551307368e-01 3.424763922825456441e-02 -8.220644906967877752e-02
2.118352165801823117e-01 1.166231477383524451e-01 -7.343392089635134012e-02
1.888221146590262634e-01 -1.995333784297104868e-03 -8.704953411057590740e-02
1.895289770271629259e-01 3.545788439273835080e-02 -8.378903762802480948e-02
2.154481561221927577e-01 1.339361719075590484e-01 -7.140642241224645637e-02
1.860894193444400935e-01 1.150198959211259919e-01 -7.764509690061210945e-02
1.744654446523636604e-01 -5.900351539470255480e-02 -9.411516410395504018e-02
-9.764365760140120143e-02 1.675721628039330280e-01 1.594273029759525617e-02
-1.154313614524155734e-01 6.258669868826866045e-02 5.733030283004050820e-03
-9.169977653846145271e-02 2.048060197877883959e-01 1.955680230408907150e-02
-1.065637668891251111e-01 1.291681624013185370e-01 1.217559025526046557e-02
-1.263275583255291101e-01 -6.617663192100822767e-02 -6.644219844639295824e-03
1.936209653370827566e-01 -1.979964786040782909e-01 -4.032416997890174160e-01
2.127850424862652856e-01 -2.148331683871895492e-01 -3.953747748295962650e-01
1.791078509850800027e-01 -5.395519909150898324e-02 5.532089163780212759e-02
1.839653559658676607e-01 -1.214826689025014644e-01 5.041316502586007386e-02
1.991285867412388166e-01 1.048589945068955503e-01 7.184184641599654364e-02
1.856414674478024107e-01 6.547147492475809127e-02 6.639520956262946749e-02
2.051268035250156940e-01 3.197175856396556465e-02 6.666415240988135538e-02
2.039024385384470006e-01 8.411044601768255524e-02 7.085343528166414273e-02
1.927418933655321576e-01 4.035542708970606823e-02 6.540800836443901034e-02
1.838434676457941508e-01 1.348197194801271093e-01 3.168883245885371902e-02
2.029755173893272868e-01 1.309663477072119664e-01 5.670418427884578449e-02
-2.493452633458376200e-01 -9.842339184984563727e-02 5.757299503982069022e-02
-2.420855574385076814e-01 -1.225862195616960609e-01 -5.057757762521507272e-03
-2.419769936518371134e-01 -3.529458620660007317e-02 4.650137225508689520e-02
-2.447262098743766545e-01 -4.032671826407313587e-02 6.172539508387445140e-02
-2.417363227094710132e-01 -6.663568834736942684e-03 6.205204138517378398e-02
-2.469215454010665611e-01 -1.569247122506052528e-01 6.457818402647967637e-03
-2.420394135857373563e-01 -7.370992220088840030e-02 2.390835010424255391e-02
-2.471748847009986871e-01 -8.849713578000664715e-02 4.911998394176363136e-02
-2.335474976684153159e-01 1.168605868427455563e-01 8.170803356975317455e-02
-2.420675533139705904e-01 -4.467862091064452035e-02 4.148199078559874908e-02
-2.337427290359139487e-01 1.290651424974948169e-01 9.031252114027740752e-02
-2.425261944764852684e-01 6.082644724920396179e-03 7.492566362172364824e-02
-2.465634726409614286e-01 -8.254235483042896004e-02 4.863033343195916069e-02
1.468516620058566424e-01 -1.686876410273462357e-01 -4.199474936534464131e-01
2.218754137434065521e-01 1.094682255990802808e-02 -5.373455915987490616e-02
2.227112382917106337e-01 4.588697365671395162e-03 -6.308717091053724080e-02
2.295629689129441986e-01 9.117371107064188573e-02 -5.668414936020969852e-02
2.268531132786721083e-01 4.153091170512140246e-02 -6.843875134840607388e-02
2.234565730144828788e-01 1.175776258476078986e-02 -6.373799949064851145e-02
2.215637086734175698e-01 -1.927004167065026266e-03 -5.937695418566465988e-02
2.315426663216948733e-01 8.792839194677769254e-02 -7.176072781831026315e-02
2.251935086140036679e-01 6.352282361887394424e-02 -4.425819613248110213e-02
1.264883642144501094e-02 1.966599722114950599e-01 3.323996686086058694e-02
2.814001896530389860e-03 -4.108882504008710274e-02 7.215680199265481209e-03
2.196211230874061185e-02 8.842275991506873267e-02 2.133827782481909074e-02
4.152447498887774924e-03 -1.286725895879417547e-01 2.374110361933745583e-04
1.335238179020583824e-02 -1.146638899728655986e-02 1.155738465413451432e-02
-8.734501699358227997e-04 -2.242745195068418865e-02 8.099047126024966348e-03
1.939252966494858232e-01 -1.628067291279137185e-01 -4.009565381544828444e-01
-4.021433443948625730e-03 1.892344925680756740e-01 1.236866993354261146e-01
4.550767488338053335e-02 1.867012727366387792e-01 1.109766626416147095e-01
-9.376177850998938801e-02 1.972230205269157877e-01 1.113381115286052325e-01
-5.580933520771563100e-02 1.945944335160404437e-01 1.087548828320205052e-01
6.159276572130620298e-02 1.843322371782362690e-01 1.229452601687610058e-01
1.077089099853485860e-01 1.813635802765935778e-01 1.174606628863513469e-01
1.142145392023772021e-01 1.804857950916141374e-01 1.214647460357844710e-01
1.211549278802424856e-01 1.838587593776732920e-01 8.087865938767790919e-02
9.089885156676176178e-03 1.907626644430309715e-01 9.743460292264818912e-02
-8.842593382604418961e-02 1.966541616210341625e-01 1.130494738106429531e-01
1.259138947067409697e-01 1.767854752072691993e-01 1.507514129863679331e-01
1.484684538342058782e-02 1.890162406881898682e-01 1.110712749217450668e-01
-1.661185162517428426e-01 8.157772798053919416e-02 9.646406967639908903e-03
-1.779031272700428989e-01 5.759803680434824602e-02 8.060648413300522397e-03
-1.860081256911158554e-01 -5.367392689868807215e-02 -2.658204091191281038e-03
1.157194607853144347e-01 -1.803163791038095987e-01 -4.308019577302038550e-01
1.111472977172583282e-01 -2.795922759839147287e-01 3.530399150897562399e-01
-2.274746348498016546e-01 1.385777704740315530e-01 9.362857318624856484e-02
-2.041245296281576083e-01 1.791228538796305753e-02 8.718167553037406425e-02
-2.092452291230857409e-01 -6.691320658251642683e-02 7.923988352000714552e-02
-2.186685532353073447e-01 4.935688245080410708e-02 8.752233528837563559e-02
-2.056263307422399600e-01 1.554837378814071247e-01 9.850910187810660301e-02
-2.253281170431524483e-01 1.077627264288812670e-01 9.137791036710143922e-02
-2.216398153308033747e-01 1.761472459092736087e-02 8.438342214614155679e-02
-2.108713038489222480e-01 1.226576410160213904e-01 9.491906303793193334e-02
1.179640640532970269e-01 1.394516691934317154e-01 3.848768289941549292e-01
1.343247059170156743e-01 1.197780470983683954e-01 2.645607684911787105e-01
1.270945407243072867e-01 1.202165675787627841e-01 3.127869675230979252e-01
1.192319774356484369e-01 1.525283491021394711e-01 3.842974060443043460e-01
1.309511877336352881e-01 1.199874324330687525e-01 2.870654606269300024e-01
4.976551757879554838e-02 1.147158315224200142e-01 2.951538685396314088e-02
5.616252684190869288e-02 1.564630218558013264e-01 3.424098763108253396e-02
7.185592762231823860e-03 -1.615448751413822159e-01 -1.852787033617499246e-03
3.710777036331593809e-02 -6.527006149291761372e-05 1.759781453475355723e-02
1.893689320094883374e-02 -1.747268392568081252e-01 -2.774296177923685214e-04
1.766492193620651796e-01 5.573082149952648945e-02 -5.457030873373151098e-02
1.746051036275177992e-01 6.346233162581930293e-03 -7.058666138276459279e-02
1.886756055950373212e-01 1.678220926037430616e-01 -6.721918377831578861e-02
1.802197013854235363e-01 6.149432709537447361e-02 -7.480443304881453925e-02
1.763402553562819775e-01 4.326808885075151406e-02 -5.998468151658774283e-02
1.876195418222248446e-01 1.601450918804854240e-01 -6.481124132245778824e-02
1.881927358954399720e-01 1.542095849540084662e-01 -7.216850365146994239e-02
1.768963544345646954e-01 2.956894935362041482e-02 -7.187821064367891366e-02
1.845174669485538932e-01 1.590219959132373184e-01 -4.490528206124902444e-02
9.558173332668840061e-02 1.295635951258242158e-02 3.474747621580957790e-02
9.453327555567025975e-02 -5.103497512787580348e-02 2.978100247949361234e-02
1.004587831976264667e-01 5.261058792918917038e-03 3.570582297578453468e-02
6.475830209448933672e-02 -1.718499851991981409e-01 1.175053297728299861e-02
-1.320444241752475600e-01 -2.074111964061111368e-01 7.965204202607274742e-02
-5.221216241531074359e-02 -2.244924500678479873e-01 9.085611219182612719e-02
-1.141897019101679317e-01 -2.187271896800398741e-01 8.152772335410121696e-02
-1.074707131700217699e-01 -2.359236280503123617e-01 8.114590555369857738e-02
-1.965924017740040830e-01 -2.190730655222386247e-01 6.845162404105070708e-02
-2.174529442571103768e-02 -2.282424029291421075e-01 9.536475946143271876e-02
-9.403532497517765043e-02 -2.134410869750380524e-01 8.516320198193194635e-02
1.220891781121492131e-02 1.062152125320583590e-01 2.105612096667289213e-02
9.205698156580326835e-03 1.406670464176684732e-01 2.335496090009808734e-02
-1.071889637373387924e-02 -2.541685047969222122e-02 6.085695554167033783e-03
2.807398096725344239e-02 1.904320699138194461e-01 3.084095734119415844e-02
9.766958834230898834e-03 8.233236615292729987e-02 1.864140308797359452e-02
-1.373002297247201131e-01 2.090249872279912324e-01 2.284069821998475913e-02
-1.937332841203361633e-01 1.905704610362649043e-01 1.894123275135457252e-01
-2.081604713428765463e-01 1.703163104636222225e-01 2.729893016035854769e-01
-2.034857829488068703e-01 1.708549427726119840e-01 2.423008798636496208e-01
-1.970315725922584527e-01 1.804454513597488485e-01 2.052286476621032196e-01
-2.124931128945946601e-01 1.517351294313371568e-01 2.906028909906744895e-01
-2.186310602862387709e-01 1.406930393992364692e-01 3.247077355144918354e-01
1.898563139090687357e-01 8.963981942832453809e-04 -3.721714920923113734e-02
1.770695010956376825e-01 -4.338139056093991142e-02 -4.296401474729179965e-02
2.014659469219297061e-01 9.113239525131880403e-02 -2.779310378566384257e-02
1.748176159650087214e-01 1.063896687202155536e-02 -3.877923544675112438e-02
1.823285380962491042e-01 1.199335575348883520e-01 -2.840195148915052384e-02
1.960859058622270723e-01 1.976209455564617579e-02 -3.464482130810618565e-02
1.817797064528614281e-01 -2.567580826433003005e-01 2.774307051852345496e-02
1.597989979452640041e-01 -2.686979988226294580e-01 1.693717195232212758e-01
2.468522375110536737e-01 -2.240799889931082978e-01 -3.637544670848548711e-01
1.653227778284996896e-01 -2.630729583119600923e-01 1.064609133054316148e-01
2.077623868989199596e-01 -2.366236714711040523e-01 -2.023417726586759224e-01
1.366975458187610071e-01 -2.718715344013273860e-01 2.206331453068554604e-01
1.697206487699598199e-01 -2.533099331950396382e-01 1.365118917375805763e-03
1.576064856474846398e-01 -2.506497471471875738e-01 -1.676724104389548664e-02
1.910707667905837126e-01 -2.515496402812749110e-01 -3.380368149325251037e-02
1.839561233841627841e-01 -2.496980714017152936e-01 -4.746361017569899338e-02
2.084177622432261678e-01 -2.409747752347588812e-01 -1.575671167843044063e-01
1.378000178105384110e-01 -2.657243772288411798e-01 1.557759499569237316e-01
1.302475874649733356e-01 -2.709397163105756179e-01 2.160226949216425552e-01
1.622229460788517930e-01 -2.617329482281208208e-01 9.495820389106870985e-02
1.637889492017775839e-01 -2.493189865348488243e-01 -3.549749586150049985e-02
-1.733114625371992845e-01 1.722668439795821960e-01 -7.630900224030018331e-02
-1.805599012023210437e-01 1.675371950776874952e-01 -2.135778330802917679e-02
1.886525645285844766e-01 1.873105665624887062e-01 -5.539460560917854048e-02
1.775783183106779961e-01 1.746859259299188838e-01 1.050892846286296395e-02
1.809497966023534410e-01 1.776858817806095114e-01 -1.006014364048838511e-02
6.029900106646120250e-02 1.792460282516479819e-01 3.701441152349115027e-02
7.234885471664369294e-02 1.221238961827755265e-01 3.588794970497488634e-02
6.552165972299874019e-02 1.823409958358108707e-01 3.863996120497584230e-02
6.822272348389030183e-02 1.560346578908711757e-01 3.736410470336674894e-02
1.812912440983205919e-01 1.479730749804526457e-01 -3.012036609545350185e-02
1.783212209411710325e-01 1.622672538354247851e-01 -1.856943338364364093e-03
-2.200101313363015676e-01 -1.858948961382358989e-01 1.173141421288251829e-01
-2.686930475302040655e-01 -1.971319903788715522e-01 2.726952513200044392e-01
-2.524740877540409545e-01 -2.006720215877145497e-01 2.967474185901880501e-01
-2.537215755358337987e-01 -1.983974547268450295e-01 2.740551500248908923e-01
-2.278097860187292267e-01 -1.910762975344061643e-01 1.774026835501194277e-01
-4.278941169612109768e-02 7.422660338953137454e-03 4.581361745148899989e-03
-3.959215544439852880e-02 4.049746215179563652e-02 7.827450743168588854e-03
-5.077108505010605177e-02 -8.875227964885533394e-02 -4.716731547117228307e-03
-7.275546397402882226e-02 -1.470362213260680562e-01 -1.198994884371757871e-02
-5.115915649957955558e-02 -1.636640943825245012e-02 1.672821144610647792e-03
6.756130556225777017e-02 -1.814377492884546306e-01 1.873358024626970569e-02
1.482408070243895065e-02 1.614390397556126067e-01 2.607204634591937797e-02
4.815973699465394761e-03 1.024498964241891963e-01 1.941664814367890374e-02
-1.447998489916324689e-02 -6.188186135828494666e-02 2.394213237762454760e-03
1.000652595885098001e-02 1.945285133007168821e-01 2.793861044004558591e-02
2.080371174440533155e-01 -1.617327333661913724e-01 -6.535238623335956620e-02
2.201290421250462759e-01 -9.014326775893569468e-03 -5.410427086204290525e-02
2.116631312402337817e-01 -1.308660437309742131e-01 -7.092049674198031006e-02
2.239326490387320567e-01 7.005538789488374718e-02 -3.198150900095700355e-02
2.098898069411516409e-01 -1.150314596375823228e-01 -4.967319589912891353e-02
2.179898695479333681e-01 -4.353091567248106031e-02 -6.058552750378846941e-02
1.528680736391246076e-01 1.132703727380931225e-01 2.804414042884111335e-01
1.378270958204567409e-01 1.145295257849246184e-01 2.792020423370599191e-01
1.392547694373130751e-01 1.174107022216170915e-01 2.480846897161006481e-01
1.475259036858379835e-01 1.142580558871477692e-01 2.743753838711976978e-01
1.215512389381229741e-01 1.095895756447315267e-01 3.434650656360387910e-01
-2.487118818500637929e-01 -1.864066999306529526e-01 1.452876123535633279e-01
-2.525463404600322148e-01 -1.809901712143421049e-01 9.193100428879263930e-02
-2.347028093042969610e-01 -1.827376076509803493e-01 9.604179000496865237e-02
-2.285454694022238109e-01 -1.822217216776311488e-01 8.581359686791897867e-02
-2.364282010439038295e-01 -1.863887170040607333e-01 1.354084742164611832e-01
-2.286179026859998797e-01 -1.845668884040415347e-01 1.102821886813640795e-01
1.563509674686193451e-01 -1.194793278279155518e-01 4.620932556778192812e-02
4.022290569067001054e-02 -2.352754496447741900e-02 3.588885549098252969e-02
1.644889546035230299e-01 9.267565079778433690e-02 6.533305172145367767e-02
-1.021938519150018647e-02 1.448861050590127819e-01 4.206022244066000282e-02
1.330292240001261159e-02 1.089132196564972649e-01 4.276043720021845129e-02
-1.744456824719905694e-02 1.190346225243807121e-01 3.874298652082681926e-02
4.899473795890808142e-02 4.915555199220777993e-02 4.338796643286943477e-02
6.009295641124248744e-02 -1.924514301627874499e-02 3.939493800312281191e-02
6.339120671220123404e-02 -4.899488184124231593e-02 3.741618877246975783e-02
3.920940291844308284e-02 2.524415517553687399e-02 3.982847239658236782e-02
9.680262200079858825e-02 -4.228614030778402727e-04 4.678960135146975619e-02
1.320619287462532487e-01 -3.723550376243889293e-02 4.927756832599639036e-02
8.113839954569936064e-02 1.315014214096963396e-01 5.539991637706756511e-02
-1.981815953031182409e-02 5.278959441564975985e-02 3.279815355479717698e-02
-1.214642757169902276e-02 6.935642117515206095e-02 3.540556011870503450e-02
1.320538603218645024e-01 1.137627920231223111e-01 6.197025460168720246e-02
-8.492929152764380762e-02 1.080076579748839166e-01 2.713096083328128683e-02
1.397224115549772772e-01 -1.435324501705169675e-01 4.155441307172179355e-02
7.257192265696824074e-02 1.294265509335696951e-01 5.386913697555660574e-02
5.463195930212737250e-02 2.749956582367420882e-02 4.245996922343969748e-02
-1.404529971848428316e-01 1.600615707905590768e-01 2.271576850533485459e-02
-1.125152844733744856e-01 1.179735596612841164e-01 2.360100537046790070e-02
7.350519003890454428e-02 7.619482910715046076e-02 4.954187585398554805e-02
1.782998933117091733e-01 -9.509702677547930694e-02 5.173429839432239219e-02
1.655347927906364036e-01 8.187778406262399833e-02 6.459089830920099196e-02
-1.269596510209143256e-02 4.104339579842984642e-02 3.293836125060915776e-02
-7.514662790372968193e-02 7.929151188351214741e-02 2.626579572021961462e-02
-4.126084357917308987e-02 1.059940671403706292e-01 3.387581743150949731e-02
-5.903125026307999568e-02 5.484068411178888436e-02 2.676187706127762522e-02
-7.301786125823855889e-03 4.797186717614532192e-02 3.437489025071263637e-02
1.850474515616148674e-01 -1.768065545313805553e-01 4.593358644589781714e-02
3.875325307674705455e-02 6.580053538158536774e-02 4.316569960668682759e-02
1.106149766352027553e-01 4.574112959638238635e-02 5.285741069361567235e-02
1.643582614745944526e-01 2.512650031447412335e-03 5.773263171955943240e-02
1.082385339773446475e-01 -1.045322032964974557e-01 3.984812430813909623e-02
1.867239959608763267e-01 -1.724806545674055502e-01 4.656270300015807884e-02
1.727509283696115061e-01 -1.549591123138368276e-01 4.582329510152340080e-02
1.574264271536469362e-01 -1.260924321320653074e-01 4.582366234749556122e-02
3.689208175510167581e-02 4.373217482082546181e-02 4.101579635232686927e-02
-7.882909629270434815e-03 2.931578367963433296e-02 3.271451979354024486e-02
1.254655645152926435e-01 -7.755493463382125141e-02 4.484361878246068134e-02
1.612277088768780328e-02 1.029421416094899455e-01 4.270494053795934053e-02
1.641085326531529498e-01 -1.062282251711189757e-01 4.855157955855131380e-02
1.653766017926484311e-01 -5.980119733370840851e-02 5.265533395722508947e-02
-1.607461755503714063e-01 1.844879332618415413e-01 -3.306084903299808669e-02
-1.589610219227522436e-01 1.777288403724134325e-01 -4.895127404257654941e-02
-1.654562871397286528e-01 1.724510827185958828e-01 -9.023767100423567278e-03
2.252286602824925960e-02 -1.229158771418035062e-01 1.112283245208859628e-01
-4.250673934921622710e-02 -1.952466737762093701e-02 1.096238088136911593e-01
-1.056439196524769086e-01 5.362410149037839802e-02 1.057765361498296530e-01
-3.535343449592590753e-02 -3.857920260660350348e-02 1.091545528480410976e-01
-1.512932369475811778e-01 1.302409675731509842e-01 1.049897122432291718e-01
1.953654239021241634e-01 1.367828015973419076e-01 2.163666998744005754e-03
2.100439290811121629e-01 1.349212475468963279e-01 9.959569917321206556e-03
2.134401167836785240e-01 1.305202102759480398e-01 5.309146759867668097e-02
-2.410684422554075779e-01 -2.379420363043993902e-01 2.467870222678780756e-01
-2.142543510484695435e-01 -2.227523963244259220e-01 7.800448115378617875e-02
-2.159206223659217161e-01 -2.047556198361515922e-01 9.983655849397179982e-02
-2.122905033957958043e-01 -2.206617747773975124e-01 6.622876406073570366e-02
-1.414407590813934745e-02 -1.914493293940276175e-01 -4.542805699114501605e-01
-1.112249927417934131e-01 -1.539080597459524802e-01 -4.491332165247202135e-01
-1.925914368756115602e-01 -1.761296123615652132e-01 -3.654598821997642744e-01
-2.175609068068861951e-01 -1.547489122979342768e-01 -1.870120859551429870e-01
1.814137884433567327e-01 1.184289985524117905e-01 2.042210870283842072e-01
1.920658539053797520e-01 1.206032553420960940e-01 1.731841030013561433e-01
1.763136276558041338e-01 1.172812989057600563e-01 2.201918654549121501e-01
1.726011401852965144e-01 1.113697752834856280e-01 2.846556196105479719e-01
1.706887781712412844e-01 1.224324982354044744e-01 1.710097755777836015e-01
1.575652326162159667e-01 1.128947197256237323e-01 2.806455664592981125e-01
8.723941774278877459e-02 -2.667805274799466275e-01 3.454042512002586940e-01
9.762541250430045725e-02 -2.461665909577160916e-01 2.888512714202701726e-01
1.041169579198956419e-01 -2.575335715416818827e-01 2.389798380541801048e-01
8.966019139423964113e-02 -2.324954812272637950e-01 3.498787469884753198e-01
9.938341733343897255e-02 -2.668011291530728024e-01 2.648308846272527939e-01
8.681029167532919311e-02 -2.762109539083391629e-01 3.426030719166994198e-01
-4.202235080897810497e-03 -1.325894637612998195e-01 -4.331185728618502928e-01
-2.001013474428653682e-01 1.819783405290544276e-01 2.265110151293874274e-01
-1.891353881883621191e-01 1.953647634061425886e-01 1.617820711261034050e-01
-2.089067675290256776e-01 1.715014590401947592e-01 2.786498817078769674e-01
-2.162825661953538536e-01 1.773594349883496901e-01 3.310879204382002339e-01
-2.061927444536238718e-01 1.865081843370199333e-01 2.696331489901245271e-01
1.956550483728199952e-01 1.918917658535391202e-01 -6.152031657353042998e-02
1.807455997467786180e-01 1.868207102382183071e-01 3.029307172149421634e-03
1.797724336690455782e-01 1.856615540219098415e-01 1.586309911355376218e-02
-1.178488304005563259e-01 -1.234476366201788106e-01 -4.386098723962902901e-01
-1.424508043396472967e-01 -1.221008230196684585e-01 -4.332179922029375518e-01
1.163517630925029328e-01 -2.590749850281328093e-01 3.555887766666710470e-01
-1.588502227529883237e-01 1.250807314332574305e-01 1.355019026190042858e-02
-1.672552757512033028e-01 1.522947194900363399e-01 1.690481523215771331e-02
-1.690955499844253029e-01 1.316867957735806671e-01 1.495211099594831450e-02
-1.613772463786602163e-01 6.614771367341280850e-02 7.748748145997533254e-03
-1.618131521485745850e-01 1.354006958563626073e-01 1.480202070891856181e-02
2.225700421845913102e-01 -1.758797248914092670e-01 -1.702337902405857972e-01
-2.088277552978694274e-01 1.532380814773589284e-01 1.497889779001474464e-01
-2.011635906040668553e-01 1.509012211201339881e-01 1.680668519985676068e-01
-2.238585356378555158e-01 1.565401391075551540e-01 1.272764528965949771e-01
-2.203761264565586853e-01 1.506858269309252207e-01 1.854678317308426083e-01
-2.117146582809090460e-01 1.480953072996437359e-01 2.055992275893687993e-01
1.757138290951401061e-01 1.810224831131845846e-01 6.735465692982077479e-02
2.280749174451082995e-01 -1.744525586833804709e-01 -2.058973701591789718e-01
2.125341213752329483e-01 -1.864288276661932586e-01 -1.099752650097012563e-01
-8.763151629686354027e-02 -1.255581761509925176e-01 -4.480330648908018576e-01
1.843573576614260801e-01 -1.593371448647230848e-01 -4.049837738725542979e-01
2.155672266319393765e-02 -1.368891121687740020e-01 -4.086865111282467766e-01
7.778087583661079385e-02 -1.422003252806514351e-01 -3.977621626922488440e-01
2.402545596279203888e-01 -1.568423928400874134e-01 -3.735425216880440269e-01
1.489022251357883242e-01 -2.121107621138542954e-01 -4.110616585765778375e-01
-4.267762928582727322e-02 1.094036340636015125e-01 1.365994008705019580e-02
-3.929937128014862613e-02 1.566085913588851353e-01 1.817336344674228693e-02
-5.932631212309003033e-02 1.216191208183765166e-02 3.428186142742636888e-03
-4.840098847955465189e-02 4.788250551581382797e-02 7.642810334265233430e-03
-6.360204915732145525e-02 -2.627702454514801306e-02 -3.888106843829147730e-04
-1.497790261429548242e-01 2.090590773484855835e-01 -9.109911228179931597e-02
-1.652645676165074018e-01 2.101253196428716219e-01 1.226765837982295854e-02
-1.575452142490446350e-01 1.906649359566718327e-01 -5.059599667161703007e-02
-2.385169740449637199e-01 -2.076554051372409004e-01 2.479998473204672593e-01
-2.192660799389332393e-01 -1.932043491496145682e-01 1.289478040392696978e-01
-2.158417219223081884e-01 -1.917958185672760107e-01 1.070748264980316278e-01
-2.475762750092148634e-01 -2.321376422348618296e-01 2.934350466206669950e-01
-2.370379820621758560e-01 -2.157107064240426086e-01 2.333641369612515226e-01
-2.403113230033963876e-01 -2.089701243669540021e-01 2.591158328132331934e-01
-2.058327376119792676e-02 1.854815603373199395e-01 2.271060068652033803e-02
-4.013038665942848110e-02 -6.176322341725230120e-02 -1.149133981615306499e-03
-8.745217277482151413e-03 1.604346182297170242e-01 2.219486618950963774e-02
-2.699238783977925965e-02 9.161895911373198198e-02 1.379492934003472698e-02
-8.561150953918697515e-03 1.862093062544613875e-01 2.442128709733486225e-02
-2.246965334989875773e-01 8.744569251045586356e-02 5.375685741156342734e-03
-2.326888161729276372e-01 -1.807384986802934926e-02 -4.801094129979623093e-03
-2.299183785560727222e-01 1.311528474196791694e-01 6.619282854020594464e-02
-2.386949614990502844e-01 -6.307455130971967305e-02 8.091446598023167847e-03
-2.233235753904283249e-01 1.509256009062379389e-01 3.428611864626407435e-02
-2.278890081764757825e-01 1.514928910328447731e-01 6.491210060328245213e-02
-2.267196978694200615e-01 1.038716361460834681e-01 2.863454670339822539e-02
-2.234867994383722689e-01 1.316240235823392668e-01 2.380912167444824978e-02
-2.329181154841184764e-01 7.583077576234938111e-02 5.295990521132945550e-02
-2.312419329476356755e-01 1.397934077091515098e-02 4.797341491281990888e-03
-2.262455940701812718e-01 1.087056000516563870e-01 2.838451159968971571e-02
-2.255296231589466460e-01 1.619196126129478219e-01 5.550498735651371307e-02
-2.402907753619551723e-01 -1.167271386856585658e-01 -1.345497940748930157e-02
2.357309943573176747e-01 -2.189911066800355743e-01 -3.835166872495412438e-01
2.135792137174308269e-01 -2.088682495852560161e-01 -3.946459851872920477e-01
-2.411178313273191487e-01 1.709640638498961807e-01 3.351417989712954237e-01
-1.659334347642958118e-01 1.952232461114227768e-01 7.779884520173079021e-03
-1.604573763725906377e-01 1.797732396720349846e-01 -3.780033849194645856e-02
-1.668447080092131940e-01 2.061902346573024902e-01 2.039327626317739145e-02
-2.169327936992794525e-01 -1.663139898788928983e-01 -1.981052441714704071e-01
8.686344430685041806e-02 -2.718196038866043107e-01 3.448804650482535372e-01
1.080526607321947719e-01 -2.531480207350850220e-01 2.154976442985236385e-01
9.072756562568246030e-02 -2.658525575505941707e-01 3.228202938126027433e-01
1.075989203669130700e-01 -2.640871737683564424e-01 2.119561690428853340e-01
9.105110138282178356e-02 -2.419693631512671583e-01 3.349777623113989744e-01
1.648918198571354132e-01 1.715625334256887513e-01 1.743643720708787370e-01
1.348415657871216422e-01 1.610956694157421876e-01 3.070265973190963171e-01
1.832426573941856596e-01 1.739024519385397594e-01 1.355285631619393971e-01
1.393002722700685259e-01 1.644787137658894061e-01 2.682936572258173835e-01
1.781580142208188666e-01 1.734911035162955695e-01 1.438222295074164658e-01
1.712726464449614294e-01 1.698353046303242575e-01 1.873090019075572266e-01
1.551572348881512797e-01 -1.625432489758730226e-01 1.288972994317114373e-01
1.505331228351592665e-01 -1.773664522195607385e-01 1.269190111228823969e-01
1.462908741158991943e-01 -1.388767866738885581e-01 1.294830336000025450e-01
1.362897800320386765e-01 -8.949355977751315139e-02 1.320510321983695279e-01
1.532975278628617433e-01 -6.475511155359446602e-02 1.368235963310301395e-01
1.549247693169862050e-01 -1.021592128942161865e-01 1.339367933620512763e-01
1.328670651829242655e-01 -1.963989244035631299e-01 1.225218990847468381e-01
-2.741052490966022215e-01 -1.957042406858503780e-01 2.621037211710214865e-01
-2.273560009016096506e-01 -1.906089716771245113e-01 1.721801279085874992e-01
-2.503660575541853950e-01 -1.897079489459842505e-01 1.809563205087185433e-01
-2.759969585619866939e-01 -1.978222306007146880e-01 2.856429987913370327e-01
-2.647221836031973252e-01 -1.968592295257002300e-01 2.667229616504908085e-01
1.157504549289494894e-01 1.852722568256408298e-01 7.042938655242324264e-02
-9.834357336185872711e-02 2.036500251916796012e-01 4.805285636886955092e-02
-1.601906403986364524e-01 2.070464947962760982e-01 6.149609989807010291e-02
1.312319886662065976e-02 1.948376340897381431e-01 5.183487439736725322e-02
6.444150657430293416e-03 1.941548807220161155e-01 6.421166615590452598e-02
-9.457341035060583267e-02 2.042139318184554575e-01 3.920831082567571846e-02
-2.384289522148668947e-02 1.958484188289940642e-01 7.047998179599641866e-02
-1.369810396946221642e-01 2.046238756173849316e-01 6.840115222021937724e-02
-9.616287644051016437e-02 1.993868002405017881e-01 9.070926491484049281e-02
-1.726951910232752685e-01 2.068867662699520882e-01 7.302497282966971537e-02
-1.159017526806145892e-01 2.034992423278838558e-01 6.347597611114381977e-02
-5.659727366641164291e-03 1.936510984418541303e-01 7.900574798509479857e-02
-1.006765737205743694e-01 1.938702938096970307e-01 1.840480210810899880e-02
-1.155611460693925646e-01 7.268474480733276566e-03 4.728017739951684284e-04
-1.263003908684104670e-01 -4.871721172235906477e-02 -4.989289015382529502e-03
-1.089324814456701235e-01 1.710589970485121014e-01 1.613493281930685613e-02
-9.523853629492223805e-02 1.904705648233741277e-01 1.814694341614841305e-02
-5.040935215838253380e-02 2.023160823076963766e-01 2.118128789052367567e-02
-3.889051451265811837e-02 2.002974750798195425e-01 2.209375866472720884e-02
-3.639109428115189226e-02 1.943227832669019717e-01 2.180435459569096679e-02
-6.505017641462385036e-02 2.823697517737745050e-03 2.061978711038831014e-03
-5.286688374847173938e-02 1.051775802571326551e-01 1.231110304653645210e-02
9.046367012768984084e-02 -1.783667843861877489e-01 -4.371462475913763246e-01
-2.305054797872900865e-02 1.803727269839495717e-01 2.194126418054104244e-02
-1.318108593039214391e-02 1.429802079271525472e-01 2.008614188298583209e-02
-6.332434811443092039e-03 1.341124583681672644e-01 2.026247059017419888e-02
-1.482499210769683273e-01 -1.359119861172139732e-01 -4.422869181253016313e-01
-1.569687033755332028e-01 2.181859342796355350e-01 -5.699932038858532973e-02
-1.673531860960275064e-01 2.140734307089448007e-01 -5.997754606753585849e-03
1.964109384305030015e-01 1.807901593429595277e-01 5.344274453267455760e-02
1.858417517534643182e-01 1.790392597311735445e-01 8.000750303849578360e-02
2.062506595209986082e-01 1.809300299929082478e-01 4.422315496310592897e-02
1.536680592051893335e-01 1.693111218081414793e-01 2.066555537925660324e-01
1.663846787064522381e-01 1.694671955054253554e-01 1.949974004094302549e-01
1.633739427685737822e-01 4.685630507320165394e-02 1.478018495389819276e-01
1.645717185467481525e-01 5.690195365130899796e-02 1.488360032066703142e-01
1.722469938867539074e-01 6.383435799486936180e-02 1.506340344493091177e-01
1.740246086999773789e-01 -1.950377565664797863e-01 1.291529036095738492e-01
1.660501980919390774e-01 1.195800258795916837e-01 1.543392478801310086e-01
1.926311393238603897e-01 3.695939166888594779e-02 1.516022104221582678e-01
1.781320911861956069e-01 -2.826470684409139802e-03 1.459618649250269129e-01
1.626185867234319349e-01 1.809896641244739257e-01 7.802855777785182301e-02
1.285717802951484856e-01 1.812315047839284099e-01 1.023744533906877086e-01
1.330149620326608328e-01 1.798399252326786935e-01 1.133540457813441427e-01
5.050479325108230694e-02 1.886386271314323126e-01 8.686746717497706438e-02
-9.246603107891976370e-02 1.982475224541127845e-01 9.965145060405136701e-02
