-1.657484270477295185e-01 -2.870245491243900160e-02 -5.904136754326522185e-02
-2.251811557443439693e-01 -3.760645835407078197e-02 -5.074964461468161464e-02
-1.991916003207861996e-01 -3.398818623915314530e-02 -5.427073463693261879e-02
-1.997909252889454312e-01 1.999058472953735288e-02 -1.746433501132577670e-01
-2.142837868963181902e-01 3.263901403136551527e-02 -1.493068195790797359e-01
1.650517918169498444e-01 -1.948430344745517018e-01 1.644493514591455485e-01
1.776603423050046038e-01 -1.443122539344429967e-01 3.191337100344895927e-01
1.793346103742718689e-01 -1.169963691917061538e-01 3.293871220183372528e-01
1.775908414383232659e-01 -1.312342708152532400e-01 3.116132557457685359e-01
1.697989352838694954e-01 -1.662529039025306687e-01 2.179132004660368493e-01
-4.089562409788370656e-02 -1.310790848856419333e-01 -2.265319079346954367e-02
-7.417681241005659454e-02 -1.293152698380500010e-01 -2.066485151551664123e-02
5.576221605047583518e-02 -1.350557386356592282e-01 -2.907414786905049980e-02
1.158634972703457000e-01 -1.523722324419021501e-01 -2.446921308249235677e-02
-1.641848563745617814e-02 -1.376210416053980645e-01 -2.107061080016195409e-02
1.373365855506062660e-01 -1.763049473270773826e-02 -8.103569940254091997e-02
-1.997137901900708779e-01 -8.440672501988709386e-02 -3.268760873638092840e-02
-1.399654240199923461e-01 -9.155674607180058766e-02 -3.447238336659967650e-02
2.570535392627120580e-02 -1.036115420466661441e-01 -4.312677794337272524e-02
-2.322857672217488179e-01 -8.996413338415325256e-02 -2.722980141736567467e-02
1.069938270606100306e-01 4.686196433179082299e-02 -2.297375190349668361e-01
-4.637661674559116071e-02 5.068216582611204113e-02 -2.220851344315707687e-01
7.603501962140202242e-02 4.409211757488551431e-02 -2.352859003136306970e-01
-1.258663764542341246e-01 6.002225542202593855e-02 -2.033756601761281535e-01
6.003124308958651678e-02 5.355869465857746037e-02 -2.163230541452765554e-01
-1.169273119792342032e-02 4.803951472982764814e-02 -2.273787252233922529e-01
-1.684005514439940454e-01 1.780863228061795311e-01 9.457987057477237891e-02
-1.683208987653255495e-01 1.650214919182658169e-01 1.022386142694949873e-01
-1.707487436474859621e-01 1.480728177911043164e-01 7.605699842363591867e-02
-1.688081857407092989e-01 1.701699933478236226e-01 9.271534338414666454e-02
-1.631512837380170722e-01 1.890866560491919479e-01 1.639896099188923595e-01
1.675546039260923936e-01 -2.021071191173791637e-01 2.037880912479758111e-01
1.634649855124950535e-01 -2.363244464084506280e-01 1.625155967101454824e-01
1.635750936271250233e-01 -2.192876585847139403e-01 1.555816625317931190e-01
1.627106277909874943e-01 -2.201908272257447341e-01 1.436975602325797075e-01
1.666456262989342296e-01 -1.977795474284887445e-01 1.886575793516635513e-01
1.646074548153579342e-01 -2.060017072582244757e-01 1.636797502291202633e-01
6.738376764446497857e-02 6.539962589457629094e-02 -1.073029596631228932e-01
-1.787507271617650925e-02 -4.295484120234847880e-02 -4.574629065975547443e-02
-1.449857152089476797e-01 6.566305825084448045e-02 -8.884189004629849951e-02
-1.813343742308020645e-01 -9.426463090732693784e-02 -5.820986873656522342e-03
-1.475678059074282678e-01 -7.176310085915028891e-02 -2.001034044988453386e-02
-1.548953605923056587e-01 -9.994053123697638208e-02 -5.302169976979492771e-03
-9.117055848926305939e-02 -3.744691160723567780e-02 -4.207905089452863151e-02
-2.393650570720434051e-02 -2.510809470281004374e-02 -5.412502420023083960e-02
5.443499267399308505e-03 -2.112563405625522694e-02 -5.868530518747865771e-02
-6.643632287949324811e-02 -4.550571860797703039e-02 -4.022139582358300047e-02
-4.601886438339948537e-02 7.498169121667758175e-03 -6.846935731254517876e-02
-1.247162422746419912e-02 4.065438838064669436e-02 -8.795851240307091257e-02
-1.762100706824660246e-01 -1.110193572998047218e-02 -4.778585233986377273e-02
-8.859843725293874150e-02 -9.987115161627531379e-02 -1.114098602175712938e-02
-1.058156983968615572e-01 -9.348002656511962549e-02 -1.282420376993714806e-02
-1.631002279469370708e-01 3.559046807043256266e-02 -7.224324389360844978e-02
-1.378176719185709720e-01 -1.606712886590510592e-01 2.352054213948548411e-02
9.287568237811329175e-02 5.114977782450616517e-02 -1.024209643613546994e-01
-1.733687739679217465e-01 -1.878845946542918866e-02 -4.419735865511000700e-02
-7.007517656654119187e-02 -3.161781155005095878e-02 -4.683590153262019717e-02
-1.847439302882552259e-01 -2.126851002353429831e-01 5.359504006862642056e-02
-1.452748296114802495e-01 -1.859811216489225538e-01 3.680850540734828535e-02
-1.203511742207408058e-01 -1.616086967714130962e-02 -5.015069529645144186e-02
4.108432647615670869e-02 8.445546284586191721e-02 -1.145134893789887531e-01
-1.343084212395548871e-01 6.697154804758728708e-02 -9.042988911233841576e-02
-7.752236479729412988e-02 -9.302942897267639510e-02 -1.552618204526604040e-02
-1.100527198132872642e-01 -1.508525146463513544e-01 1.618806864857674777e-02
-1.397417781147360927e-01 -1.210668598733842388e-01 3.917785224765546470e-03
-8.711298739165068694e-02 -1.354429980685561974e-01 6.487040335163479776e-03
-8.491970571726560613e-02 -8.837761050872505741e-02 -1.720082512833177868e-02
1.219865118744969668e-01 9.330091814778745940e-02 -1.260121380325406881e-01
-1.068525224611163171e-01 -4.727686018578708405e-02 -3.579884350456296466e-02
-9.331399285286665068e-02 1.845780883960423946e-02 -6.979999074719844820e-02
-5.503125817269086117e-02 6.856409913234412512e-02 -9.816549589119850927e-02
5.680616829663515110e-02 2.133853798992932371e-02 -8.438085957832634765e-02
1.175201928284764219e-01 9.467398022912440481e-02 -1.263065756579488386e-01
1.012998779001832161e-01 8.143613800853491402e-02 -1.182779577103257179e-01
7.388385697036982391e-02 6.659479582473634696e-02 -1.084686804960668105e-01
-8.467046916335820017e-02 -4.822292405202985299e-02 -3.726855248048901309e-02
-6.625687256067991360e-02 -8.827900122217834100e-02 -1.888395121790469033e-02
2.834335384041071493e-02 3.603231579050422684e-02 -8.922437509045004489e-02
-1.418652735540270882e-01 -6.901007798962294215e-02 -2.188394341982900781e-02
5.346639847427607506e-02 7.197950015708803884e-02 -1.093693040637671865e-01
7.038613212406636538e-03 7.157285442478955595e-02 -1.051016275472193978e-01
-2.062889591512084009e-01 -2.632518292036652441e-01 2.045429803580045558e-02
-1.994231398984789849e-01 -2.703736461561173088e-01 6.188326473459598853e-03
-1.943268005608022320e-01 -2.522950813850015628e-01 4.240215970717370331e-02
8.129019203722477604e-02 -5.962450254410500694e-03 2.255583551213148630e-02
-1.599181968390941261e-02 -6.830199118345975373e-02 6.219367315202953272e-02
-8.327571977674960713e-02 -1.279153927133232227e-01 9.784429272122682764e-02
2.371929607987405264e-03 -6.118736063972113337e-02 5.703421337530018009e-02
-1.555941982585191674e-01 -1.718115885122865338e-01 1.260893826320022559e-01
-1.904596579834818837e-01 5.091424337416886048e-02 -1.566929109632968775e-01
-1.900270346111059272e-01 6.749962500900030804e-02 -1.587995563679933664e-01
-1.867245720808207998e-01 9.540323482513426989e-02 -1.256069972437620086e-01
2.163715010564029317e-01 -1.333596718476712795e-01 2.806460227234661708e-01
2.019765057435631561e-01 -2.097230543212592613e-01 1.276797428970038728e-01
1.837991526025533617e-01 -2.000101835981011322e-01 1.471359488406777383e-01
1.999373082087934073e-01 -2.150593270593881556e-01 1.169904601189493965e-01
1.630403123883902849e-01 -3.550849202745407496e-01 -4.215972932518273208e-01
1.340178729444742312e-01 -4.342641470751166244e-01 -3.603690728265047105e-01
1.617216291564702868e-01 -4.506471507757902617e-01 -2.460029003968835226e-01
1.393548771943151632e-01 -3.702198763149976979e-01 -8.489609026134013747e-02
-1.746400112730264742e-01 1.571272342357039054e-01 1.601275663226843504e-02
-1.771693742750585221e-01 1.477952021729945775e-01 -1.541976961731908458e-02
-1.733429220645129609e-01 1.622419838953018112e-01 3.196742669463158160e-02
-1.683044996844232088e-01 1.967339551937579700e-01 8.664120643138881195e-02
-1.770881597791612028e-01 1.289863097536563807e-01 -4.871206620335563620e-03
-1.684395968747139094e-01 1.820598550054430831e-01 9.203907977342604130e-02
2.146792434936761751e-01 1.930359667564928161e-01 1.719901745907962409e-01
1.942710660596191630e-01 1.673211994446068829e-01 1.204799851679057010e-01
2.059346329642832429e-01 1.448884074437618019e-01 7.554404043406245939e-02
1.802379547093808654e-01 1.947740877120196501e-01 1.754718680302799205e-01
2.151075303488969859e-01 1.566416545812040484e-01 9.908739896528423463e-02
2.241605903913080622e-01 1.918485282114147927e-01 1.696115731137991522e-01
1.031624627673626005e-01 -3.396447796301543809e-01 -4.079079123921692251e-01
-2.050827099534869302e-01 -1.459841394071280940e-01 2.553574894051253708e-01
-2.181938479171693090e-01 -1.753322840878367150e-01 1.965691491287946957e-01
-1.948287609615922122e-01 -1.223468680668621938e-01 3.027061707559973169e-01
-2.009748388978838951e-01 -9.870928657494483505e-02 3.500554733293503307e-01
-2.098483527517318870e-01 -1.265435313851386301e-01 2.942996811763197162e-01
-2.442158254401385897e-01 1.005909416757522212e-02 -2.070303975876420788e-01
-2.390399631439149575e-01 3.541247151575982466e-02 -1.458333583598583894e-01
-2.380341528485715452e-01 4.208723852120338504e-02 -1.348137063606828501e-01
1.040644122169911978e-01 -4.361046397395432206e-01 -3.468836687459052048e-01
1.047695726957917350e-01 -4.531540332101285373e-01 -3.283104527674615136e-01
2.042809955807030342e-01 2.219665293890982771e-01 1.638952631007880301e-01
-1.481314354425668778e-01 -2.300729447691142460e-01 5.541517841711640635e-02
-1.745656049668788956e-01 -2.372167924126982741e-01 6.394158928036688949e-02
-1.538435962457954942e-01 -2.381519897074997338e-01 6.267275743171574209e-02
-8.910670160770417514e-02 -2.306441386260092430e-01 5.003952780917286791e-02
-1.581748737454414244e-01 -2.326109047475456992e-01 5.850318754166364266e-02
1.217265231353044375e-01 -3.955393971502574324e-04 -3.244007502754032712e-01
-1.742995351171493512e-01 -1.948148449733853038e-01 1.965664909446239728e-01
-1.729727713812887757e-01 -1.778817976492643449e-01 2.070446873912215602e-01
-1.758683805234730335e-01 -2.202591051155328716e-01 1.868829977077245408e-01
-1.714000214318931181e-01 -1.835152954220771460e-01 2.322984431311488351e-01
-1.699412841401994334e-01 -1.646844841897487643e-01 2.437123612618445900e-01
-2.339968553121388184e-01 6.874119958423077770e-02 -9.051201142452658388e-02
1.204742104130983316e-01 -1.651633332140742261e-02 -3.566929012268036936e-01
1.320118990908563106e-01 2.690992671474815023e-02 -2.697041740362346451e-01
1.037037786957621527e-01 -4.167353057222067947e-01 -3.720040962289273834e-01
1.128535093826055491e-01 -1.677255091916024510e-01 -4.939984146104753338e-01
1.047547354321181901e-01 -3.042788359387218478e-01 -4.028432122023403728e-01
1.049444962254166558e-01 -2.517779603169858493e-01 -4.263448699472844328e-01
1.049234116928279559e-01 -1.043430764873325839e-01 -5.002477419237791878e-01
1.686189626263082109e-01 -1.957770119258016028e-01 -4.804932616565376069e-01
-1.426463491001725425e-01 -1.341128680933266759e-01 -1.169244323633611415e-02
-1.900403912825882335e-01 -1.326291838818043356e-01 -8.272646606639025291e-03
-4.415339851573109320e-02 -1.455973424290120666e-01 -1.394305244341492722e-02
-8.076121204435826595e-02 -1.371995126806199450e-01 -1.550220725849271730e-02
-5.424979323148728175e-03 -1.481287890671193486e-01 -1.596901710912586314e-02
-2.306622514106333177e-01 -2.896701515531540094e-01 -3.246520818561316607e-02
-2.322555610629916112e-01 -2.429888327764719580e-01 6.104384598098694381e-02
-2.124013264031708315e-01 -2.712233284626900942e-01 4.486296777278173109e-03
1.859607091146707469e-01 -1.330618250545114178e-01 2.812426504110545067e-01
1.720555991557240483e-01 -1.869561587714403672e-01 1.732849425896257345e-01
1.707522307217121116e-01 -1.968476706433295864e-01 1.534708939743041900e-01
2.103085043543577171e-01 -1.123369611315429145e-01 3.227573821662366171e-01
1.941214406614005794e-01 -1.396061967062204867e-01 2.681333806198090697e-01
1.872243181367218567e-01 -1.280299530381709405e-01 2.913221769858151955e-01
-2.205128471828997072e-01 -1.171409440404921759e-01 -1.427856100730597044e-02
2.788783372059464721e-02 -1.265473342845588878e-01 -3.130735616140067207e-02
-1.965880645246803893e-01 -1.057475247966498111e-01 -2.237483434535562921e-02
-1.263022107145190254e-01 -1.198062702127546120e-01 -2.120717329300939730e-02
-2.223169036242365337e-01 -1.064265043255686743e-01 -1.974972770750522966e-02
-1.047567987196147549e-01 -2.853185481483489494e-01 8.517285949386657617e-02
1.225429829508063034e-03 -2.890444023351371738e-01 7.770946527227759471e-02
-1.489419400264322679e-01 -2.582085762354731640e-01 1.394778339865803685e-01
4.633627567946911607e-02 -2.828494978094846513e-01 9.011870487697423715e-02
-1.686303370386361966e-01 -2.727838357415795500e-01 1.102815994018316315e-01
-1.693547687147557712e-01 -2.589549548567831594e-01 1.379827356500923918e-01
-1.213644153782725277e-01 -2.749482429687679086e-01 1.059459964080154970e-01
-1.492005414552986520e-01 -2.773569186630100436e-01 1.011210900830477599e-01
-9.333733853921294399e-02 -2.637291891488433015e-01 1.284192928609252105e-01
-3.100122693210840413e-02 -2.849734088234603391e-01 8.586422091916204313e-02
-1.262159520956874226e-01 -2.751010806377977014e-01 1.056398416765779447e-01
-1.797745339077711224e-01 -2.632901483408361942e-01 1.292987512520700766e-01
1.003069433808326805e-01 -2.921390470479429124e-01 7.151046977356076417e-02
1.674010636332631252e-01 -1.086744170972704926e-01 -5.080060699823498727e-01
1.594521395504474859e-01 -1.339368251216411509e-01 -5.040487668398022647e-01
-1.925135677020251568e-01 -1.160841479423642131e-01 3.673946255102753522e-01
-2.172727122035622571e-01 -2.448929337963461905e-01 5.722967175036669518e-02
-2.015319165107608002e-01 -2.653537127835303711e-01 1.624393830396234084e-02
-2.283462471796572080e-01 -2.392860631002485805e-01 6.846099913582204266e-02
1.510211413614452047e-01 -3.751351306172460709e-01 -9.474201559253035698e-02
2.197406066346168640e-01 1.928409671877324705e-01 1.715995638509094645e-01
2.016507837325334507e-01 1.342454511266201744e-01 5.422474600233134767e-02
2.138619051389396009e-01 1.828272761990875073e-01 1.515407737705856683e-01
2.126504816718399471e-01 1.327360782237350656e-01 5.120126606300476335e-02
1.898241369946301049e-01 1.881216019485890678e-01 1.621460309188068050e-01
-2.255786604489386227e-01 1.221742442693561082e-01 2.931707357242685497e-03
-2.149481514811515948e-01 1.747659346609562458e-01 1.283627409694343691e-01
-2.288022512091696381e-01 1.146186647024005634e-01 -3.929352325372396926e-02
-2.180015041634440487e-01 1.558699143611639304e-01 9.422796327389773574e-02
-2.281002143648266922e-01 1.152756093548983340e-01 -2.960418532423676058e-02
-2.246501601064205267e-01 1.349484846549481309e-01 9.803269539549935851e-03
1.088756938236951910e-01 1.154504844204336245e-01 -4.047064345724878803e-02
1.240791236120462604e-01 1.117602551923692067e-01 -3.995945171728728512e-02
8.606556441009045877e-02 1.066304255894571507e-01 -3.407053181327877184e-02
3.770370348989963982e-02 9.592178965970873938e-02 -2.449060040310023501e-02
1.149398748099803719e-02 1.104920043668896068e-01 -2.946968596078454461e-02
4.866014239966870436e-02 1.132178779766708776e-01 -3.408432109154759665e-02
1.446560935026407202e-01 9.640293189510704130e-02 -3.409429092779752563e-02
1.769028609490394532e-01 -1.549213504692912302e-01 3.136215243712067724e-01
1.693889582613110623e-01 -1.689217136827110832e-01 2.133955934599042203e-01
1.703377622278034742e-01 -1.826939727610349673e-01 2.338093332311511618e-01
1.787489289134740755e-01 -1.427663475045561625e-01 3.338949042841792281e-01
1.771511898884177150e-01 -1.445314176800846784e-01 3.119780736559629730e-01
-2.330582031576335644e-01 2.132374451719226682e-02 -5.344686886988581076e-02
-2.322913508982956399e-01 -1.673992244169860977e-01 5.170900993444024762e-02
-2.305272783383727209e-01 -2.103247027409821945e-01 9.830952484466135011e-02
-2.333002848280966435e-01 -7.372354896642266397e-02 -9.451872269436709106e-03
-2.322632381881773456e-01 -7.199733856774867546e-02 4.483892316296686498e-03
-2.330207195441424961e-01 -1.694556632892042503e-01 4.232832864888011470e-02
-2.314237614277005195e-01 -9.320172429092228594e-02 2.704789763607085007e-02
-2.302633312267065024e-01 -1.872571817738562794e-01 9.056005920089782446e-02
-2.290115347178280358e-01 -1.407699736783653566e-01 8.521461235441268878e-02
-2.294878889726102433e-01 -2.138728532365709589e-01 1.149117688406258997e-01
-2.308911817526817511e-01 -1.728268506640940894e-01 7.439745225675403750e-02
-2.309755198830366341e-01 -7.331528596468268877e-02 2.351616239316761670e-02
-2.218074895265698399e-01 -1.855312357161938985e-01 2.844075046017764674e-02
-3.432316368266939699e-02 -1.926944854039698840e-01 1.572616195566953201e-02
2.247570048779249513e-02 -2.000000847937911663e-01 1.544323046468197569e-02
-1.983257869738340451e-01 -1.916935496051609400e-01 3.051514200791716203e-02
-2.188906548482179582e-01 -1.809724081396311413e-01 2.499023355297744220e-02
-2.346524579831957835e-01 -1.436876071719080106e-01 2.173824659660456016e-03
-2.336626707856357121e-01 -1.336170057806372602e-01 -3.758654771447184073e-03
-2.279243474765122179e-01 -1.312590264581889044e-01 -5.639978056326502842e-03
-3.432842814043163965e-02 -1.502801987429708275e-01 -1.210669502057135083e-02
-1.375242574371397519e-01 -1.428405915209650934e-01 -7.099968787431715223e-03
1.405783847509324558e-01 -2.611156509998440733e-01 -4.671248349115252330e-01
-2.151952193105220734e-01 -1.191745255205035187e-01 -1.367285601258277916e-02
-1.787779196618497490e-01 -1.091441893617063758e-01 -2.217114203117787757e-02
-1.705456689964234829e-01 -1.027399028705060502e-01 -2.626836800441145758e-02
1.191964702656864994e-01 -4.619573073718696854e-01 -3.328919782375544534e-01
-2.397466854399442904e-01 -2.766829795319586949e-01 -1.141167985647950633e-04
-2.356734661072492631e-01 -2.555055761916190660e-01 4.743413418091835254e-02
-2.353165908704698273e-01 7.762474280081690936e-02 -1.137780075892061010e-01
-2.331347322018444690e-01 8.442051961444319019e-02 -8.603784506790339293e-02
-2.361459158189594953e-01 8.033078872703017237e-02 -1.269624696748703763e-01
-2.229454366011917599e-01 1.317674692561477401e-01 3.571582200594247691e-02
-2.239973205047846028e-01 1.354143678539246332e-01 1.888599791236221515e-02
-1.007521869367360989e-01 1.158774631635844932e-01 -2.233124150142072606e-02
-1.108811604875326040e-01 1.166255103372037527e-01 -2.181790540978312265e-02
-1.184878601127862946e-01 1.233424800687283329e-01 -2.450517837993797937e-02
1.395916067272424677e-01 1.336209980978071976e-01 -5.223079990670081996e-02
-1.735392301398515635e-01 1.158651549015194127e-01 -1.595271772868929461e-02
-9.351435741126536139e-02 1.426980777505040265e-01 -3.635421101421115742e-02
-5.251992902457713885e-02 1.309031221500039366e-01 -3.405495823174713166e-02
-2.330168150010705208e-01 6.421044013731180833e-02 -7.426607814423738518e-02
-2.307326573039591433e-01 5.044761455200610922e-02 -3.480301428072155034e-02
-2.299337877914309491e-01 6.048747786156832840e-02 -2.841609403334559303e-02
-2.310223743999004486e-01 -2.264677840180694124e-02 -2.446986853107804838e-03
-2.283618187506497033e-01 -1.325290023086219959e-01 9.037131272621454214e-02
-2.288233357417583658e-01 4.753651118800023001e-03 1.525211979575455401e-02
-2.308607263167202495e-01 -1.658046341396866852e-02 -3.168854288384301277e-03
-2.281884570382535504e-01 2.344072132550178988e-02 1.498223725683986429e-02
-2.268609123937785632e-01 -5.177662035860121359e-02 7.147462867297232902e-02
-2.311676234021783072e-01 7.239286054365337564e-02 -5.196494614951312901e-02
-2.270241222941875581e-01 -1.079024225659666603e-02 4.868470052547754778e-02
-2.304390356649458627e-01 5.853695245645940126e-02 -3.465169147394596416e-02
1.378613561394810838e-01 -1.660315573500096842e-01 5.365532766282571364e-04
-1.769194835184514647e-01 1.202495082700252294e-01 1.897179575562499276e-03
-1.681233288858831054e-01 1.894015137088298495e-01 9.288679542034866676e-02
-1.641672458453476424e-01 2.230184438246488599e-01 1.325536151644587379e-01
-1.757574915002286520e-01 1.267948873937129739e-01 1.520996614545581938e-02
-1.748672556798160083e-01 1.495505982017517055e-01 1.655261458963157295e-02
-1.652519279107451389e-01 2.164307590845226947e-01 1.203650765353440899e-01
1.955402283483743675e-01 8.061156598910690363e-02 -3.066578831508752490e-02
-1.185775852721929480e-01 6.835691453531383965e-02 2.952412839084872509e-03
-2.174148330897092696e-01 -1.626520986551046322e-01 1.269290977016091504e-01
-1.029953159219026554e-01 4.837870706565677859e-02 1.156167550139131084e-02
-1.280386048585176462e-01 -1.341422016441077003e-01 1.048717352556437499e-01
-1.630912338000535811e-01 5.314747247733178637e-02 1.444231942974033567e-02
1.787018067663908027e-01 8.046702131040395223e-02 -2.911945455737409427e-02
-1.304611841624975233e-01 7.252611236721301369e-03 3.449711590483785228e-02
5.811119252383710465e-02 2.022239504583181469e-02 1.151319349490109722e-02
-1.575781212276220200e-01 -1.395685072349011902e-01 1.101667733104527425e-01
-7.611764594852923893e-02 -9.041813083343205881e-02 7.849834051601589646e-02
8.348347371160984298e-02 2.825494187161328719e-02 5.281909389942884836e-03
-1.694517506557702835e-01 2.845888117477324286e-03 4.011058396138253435e-02
-1.885333012229203908e-01 -1.310862693228572462e-01 1.086423671590537043e-01
-1.019086445468664198e-01 5.253686516180636201e-02 9.390715579241551425e-03
-1.968052068173884936e-02 5.305094199255111498e-02 1.935150121599463202e-03
-1.954321690350770968e-01 -1.662842552965134446e-01 1.268177884202450756e-01
-1.810534566104411713e-02 3.618428399562836906e-02 1.021737079501154610e-02
-1.308799015730619519e-01 -1.013233525788783951e-01 8.873675437748435035e-02
-4.148373441755771884e-02 -1.634918158270418087e-02 3.848971379436554041e-02
-1.508088564234972007e-01 1.805679965175688295e-02 3.088488341115418201e-02
-4.550142766654491355e-02 6.879751426368954648e-02 -3.665232832133755170e-03
-2.031884105926752004e-01 -7.704320831127464686e-02 8.294617500431836210e-02
-4.022758218586444667e-02 2.745647022671998672e-02 1.651120829604570128e-02
-2.501418293535708978e-02 4.878623149916549995e-03 2.645054950572552077e-02
5.280743865668773018e-02 2.192000930763782218e-02 1.113004982791844510e-02
-9.684415777146815341e-02 -8.844039536252616684e-02 7.932559123024346404e-02
-2.174447414761781494e-01 -9.420595124654471131e-02 9.276222720853985471e-02
-1.304053932428342333e-04 6.924775612875827546e-03 2.325054362930359386e-02
-4.101516969621181452e-02 4.624603509888053354e-02 7.200087661594176125e-03
-1.178896923834085453e-01 -8.217479801274835127e-02 7.804019775666296010e-02
-2.180329397433996286e-01 9.838245895758271353e-02 -3.329709487110338317e-03
-1.361238386672735112e-01 5.937953301265835870e-02 8.970219457298547749e-03
8.386231327354908005e-02 6.130111879855396073e-02 -1.124847479075190282e-02
-9.453124255120753938e-02 3.782028825566172148e-02 1.609160405293109941e-02
2.348725045502185471e-02 7.024003897160294163e-02 -1.042520487785336680e-02
-1.932162004411220463e-02 2.838920192226768169e-02 1.421529196694494568e-02
-1.885731790715455825e-01 3.736165095038712636e-02 2.455377193979921269e-02
-2.175444360977411284e-01 -4.600458627291022229e-02 6.870800846077504409e-02
-1.898791786140203441e-01 -1.493806796197593156e-01 1.178930792985856679e-01
5.330591176450252822e-02 4.620281717471780292e-02 -1.035984155461175393e-03
2.387605947911739662e-02 9.315778156630696860e-02 -2.190017400048670237e-02
-2.806483835518359948e-02 -4.113817748054846013e-03 3.120680958293381435e-02
-2.094392633646726676e-01 -1.384519458073377451e-01 1.141497196903824840e-01
-2.828416652262210479e-02 9.403934512063866213e-03 2.447771796472371364e-02
2.141360232651233486e-02 3.830891174167394553e-02 5.696904946863687313e-03
-2.191794278913736238e-01 -1.188033913800865399e-01 1.051935593364387855e-01
-3.168375311791896132e-02 -2.928057768777010683e-02 4.408731682851912970e-02
-5.634820249259472197e-02 6.484662066608667952e-02 -7.432627829909027595e-04
-1.651648819285631009e-01 1.005039935506882309e-02 3.613866065971556296e-02
3.812242090046405463e-02 7.842456151306628764e-02 -1.579234245628115263e-02
-2.092299046593904255e-01 4.557305405862629999e-02 2.226295935474338628e-02
-5.356672255098820362e-02 1.686457728318871419e-02 2.296668122150007096e-02
8.057239076197147964e-02 3.572917744532227990e-02 1.805503254681831149e-03
-5.663731689512729872e-02 -8.013056650258600089e-02 7.165714323677124797e-02
8.303759590983395000e-03 -3.645940408609807393e-02 4.417027258209885177e-02
-2.190996721941232406e-01 -1.053318912664800711e-01 9.846137330867352211e-02
-1.708375058954954007e-01 9.963906051218510140e-02 -8.088904806673485881e-03
-1.488249334543943481e-01 5.620033402740956530e-02 1.166928883433344943e-02
-1.576778158491849990e-01 -6.572483382582663958e-02 7.331147506952287451e-02
-1.209702561897039313e-01 -1.295043961696326629e-01 1.019376416851580092e-01
-1.479765538558364124e-01 -7.898698152422904684e-02 -1.636827034026383521e-02
-1.546062461897730889e-01 -7.982868130661546768e-02 -1.536766133986412763e-02
6.182795837521536109e-04 4.404366115070879051e-02 -9.079649376608429912e-02
-1.501199882194399760e-01 -1.179033304419368489e-01 3.247091436013579968e-03
-6.480133108586072499e-02 3.250922949217260882e-02 -7.931093460731208911e-02
-2.035064580664038836e-01 -1.806781271286308777e-01 3.925923771336675694e-02
6.629865263998509228e-03 1.043391771227120124e-02 -7.454423816829919280e-02
-9.850808263629674821e-02 -4.297000681206583628e-02 -3.867943968430161139e-02
-7.246784748405218912e-02 4.379129873022435948e-02 -8.427194657340644768e-02
-4.922903119772673031e-02 -1.484666959129274377e-02 -5.703338664181530071e-02
-1.549751162895560419e-01 -1.128483658127486661e-01 1.148624561578034942e-03
-1.109798797938227610e-01 -8.222287543810903598e-02 -1.799185127370059312e-02
-1.581553747174143654e-01 -6.424396972067653033e-02 -2.283709620885550351e-02
-2.009044284436106720e-01 -6.330305402643979229e-02 -1.956421199314295478e-02
-1.027550735148787531e-01 -7.982650993525981786e-02 -1.990822548210620380e-02
-6.020540903180837677e-02 -6.127372684448957607e-02 -3.289524177700280799e-02
-9.564684699743986052e-02 -5.536338802538812165e-02 -3.274294776029884613e-02
-2.035363664528727357e-01 -2.189339344210922134e-02 -4.000620208971202019e-02
-1.892900050315260985e-01 -5.180084765672683667e-02 -2.632313299477099383e-02
-6.732360501140355336e-02 -1.875871874913573323e-02 -5.349627618268132379e-02
-5.660643319338559687e-02 -1.452593157999217122e-02 -5.654762581177055769e-02
-2.137949430117010996e-01 -4.777624536052346715e-02 -2.618691860124468945e-02
-2.240036722597479601e-01 -5.251891005054115658e-02 -2.292554264649748763e-02
-1.128242302927374846e-01 -9.814676602736115141e-02 -9.880902711898079116e-03
-2.919041226357221505e-02 -3.551761287279427137e-02 -4.846844406925140958e-02
-8.303547736972569093e-02 -1.051656104390323171e-01 -8.984928991049523361e-03
1.376800016790628162e-02 5.592161250472069134e-02 -9.787740570068359514e-02
-7.843955531567335659e-02 2.643712470971049111e-02 -7.508563305966556300e-02
-6.302676682204008674e-02 -7.449720803163945027e-02 -2.604684854067861738e-02
-1.413867393705248998e-01 -1.550708118670433566e-01 2.103715387694538030e-02
-2.140541490277647896e-01 -9.542822938233613828e-02 -2.375539104938512169e-03
4.887047642022371297e-02 3.000853259600699818e-02 -8.801431331075727782e-02
-5.347602207630872129e-02 4.145374125264586485e-02 -8.476769919566809475e-02
-1.534099107310175902e-01 -2.354871831692754991e-02 -4.356831974618136094e-02
8.147061767131090482e-02 3.569458798907698682e-02 -9.370697531037032457e-02
-1.304602088472247012e-01 -8.694269000217316745e-03 -5.299312178649007166e-02
1.861315877586603579e-02 -2.981769888773561084e-02 -5.549905840083956682e-02
3.237101655155420754e-02 -2.136091141685844685e-02 -6.092530809327959679e-02
-2.853242776125669566e-02 -1.891697353117167968e-02 -5.681337291397153821e-02
-1.740766057810187173e-01 -1.978987873941656650e-03 -5.252696528777479890e-02
6.342589116841555741e-02 4.096049075670540884e-02 -9.475601966954767807e-02
-2.215611540314555150e-01 -1.083088353473693199e-01 4.711905228272084134e-03
-8.270648511856794338e-02 -4.943072741106155354e-03 -5.904653881214559641e-02
-2.329846012920141346e-02 5.818471713438630455e-02 -9.576208203390240703e-02
-1.217768073090910869e-01 -1.073979678651690445e-01 -4.478761751949791869e-03
1.043478820440173205e-01 -2.383326329050958203e-01 -4.415700377924740017e-01
1.041815485091507482e-01 -2.512522812010348217e-01 -4.374937252648175012e-01
-4.087688789322972693e-02 2.969139368608592067e-02 -2.436244323100149600e-01
-1.105634283657371819e-01 3.957343662053347533e-02 -2.424567817261815139e-01
-4.936976819783448628e-03 2.396045068763197339e-02 -2.439099242477864027e-01
-5.497370738223195108e-02 3.132981543153523507e-02 -2.432082084283232748e-01
9.807857709378003941e-03 2.470611962482335833e-02 -2.455730596174299785e-01
-1.905008408762514649e-01 5.813286568067968507e-02 -8.288047993503511179e-02
5.837386697426438786e-02 3.335420487999915529e-02 -9.649203949749469988e-02
1.486841057300567620e-02 3.875546613551675290e-02 -9.435940643765032554e-02
3.651815001145004846e-02 3.064685896381735830e-02 -9.412394211873412186e-02
8.016068162918091322e-02 3.165685410760343821e-02 -9.778752334021033332e-02
1.910648053351044484e-01 -2.449477827294916088e-01 1.660410147770494116e-01
1.814714125224947960e-01 -2.383936093775928244e-01 1.791699187071621457e-01
1.801643881285190374e-01 -3.395917302986234398e-01 -2.354373248077928221e-02
1.857620278243720391e-01 -1.528417316876352072e-01 3.505420087788999051e-01
1.978843178938329006e-01 -2.842493481543660327e-01 8.731461403220891482e-02
1.748442630024254485e-01 -3.387559675821661953e-01 -2.186958568364381211e-02
2.076925650614500074e-01 -2.354132071509957569e-01 1.851400713199377046e-01
2.116424774971604750e-01 -1.594684263963997151e-01 3.372678347240389285e-01
2.065776302359998429e-01 -2.764891125378757808e-01 1.028594253826886629e-01
2.051700768294930088e-01 -2.378428340435773392e-01 1.802731969673186940e-01
1.763579379820823800e-01 -3.244050414064526544e-01 6.877278556227689466e-03
1.822310385686159440e-01 -3.918674744924158238e-01 -1.282591844747215382e-01
1.784909753118455178e-01 -1.994503698989749108e-01 2.571785436776280465e-01
1.944996903601289018e-01 -2.551036335661262533e-01 1.456974591448157996e-01
2.183963444638252205e-01 -1.763800717357546233e-01 3.033915004519373571e-01
1.830178190836310448e-01 -1.758681000731140420e-01 3.044170494679361849e-01
1.793706390559673403e-01 -3.148331852193921865e-01 2.605101320289075761e-02
-1.577082283921539818e-01 -6.465334474727510439e-02 -4.530704016014933111e-02
-2.174380866146087554e-01 -5.179532530568539683e-02 -4.567832965113222815e-02
-1.081895388990640645e-02 -6.996694166094065415e-02 -5.552551365256309240e-02
-1.274311541733145758e-01 -6.769449288517237484e-02 -4.658529621720314262e-02
-8.229434884041547660e-02 -6.458518640302121638e-02 -5.173040975309908807e-02
6.741128481000661921e-02 -8.659021674811839819e-02 -5.479332056730985834e-02
-1.165135783444345013e-01 -7.368204688712953754e-02 -4.496683137670159230e-02
3.122310044109821020e-02 -7.899845018349588299e-02 -5.525809264875948534e-02
-1.225359143954515284e-01 -7.374423959061503220e-02 -4.441974972411990435e-02
2.814685738682747018e-02 -8.778434674218296707e-02 -5.082692442610859535e-02
-1.277069506627321049e-01 1.257128075920045385e-01 -7.178851649358868048e-02
-1.642396507057547472e-01 1.230752481181919822e-01 -7.707190830335021448e-02
-1.651723574982583709e-01 1.112935589762777400e-01 -1.006722400253266120e-01
-3.910662000000476868e-02 1.236524131172150598e-01 -7.591576760999857454e-02
2.216604067996143929e-02 1.355810536318272641e-01 -5.202107203029096572e-02
-1.615452419011294827e-01 1.441589464654028374e-01 -3.483838228121402536e-02
4.545467232048512607e-02 1.323066321463883255e-01 -5.858018519446252237e-02
-8.886732210770248441e-02 1.175395463470369772e-01 -8.816067440636457531e-02
3.079056088164448812e-02 1.345983206409215871e-01 -5.398962033987045328e-02
1.007848030355572716e-01 1.329424739366024677e-01 -5.730650710634889455e-02
8.122275567680596609e-02 1.293258746477961574e-01 -6.455104926288128542e-02
-1.667989506895840301e-01 1.399969482382387165e-01 -4.317543291918934933e-02
-1.108556326316297025e-01 1.407547036396712414e-01 -4.165754522286355122e-02
-9.974680637463925748e-02 1.329468137427419760e-01 -5.729781453780831424e-02
1.948498843808472158e-01 -1.351748261273652274e-01 3.430120212013274550e-01
1.525516696952283480e-01 -4.160066862694173917e-01 -3.773955257432907717e-01
-2.284803811115026229e-01 -2.261794448640197519e-01 6.014713284187017672e-02
1.722533122795820160e-01 -2.239225894857943266e-01 2.081573470197617959e-01
1.742984303686022640e-01 -2.353111582859605533e-01 1.853444890185446114e-01
1.721151144480705386e-01 -3.123929969108849569e-01 3.093904348142445526e-02
1.763938450543582337e-01 -2.330861200682073919e-01 1.898015443248302070e-01
1.694201748646795846e-01 -2.954059459462016202e-01 -4.193243715850263342e-01
1.694842093710601516e-01 -2.711700206574052530e-01 -4.305096583382039821e-01
1.187736068777739962e-01 -2.503675576098263189e-01 -2.297227224366366893e-01
1.181723072446882739e-01 -2.437666164340078767e-01 -2.415979117210209637e-01
1.147722311376035420e-01 -2.101162636800110450e-01 -3.069121017690003006e-01
1.251630011607706705e-01 -3.399087723173200848e-01 -9.385256454274058802e-02
1.214021452738344720e-01 -2.876389720453321752e-01 -1.736098334933817156e-01
1.359473491255939193e-01 -1.412677799299359716e-02 -1.026076952172815804e-01
1.331790280875563837e-01 4.058170163288712939e-02 -1.694200107340514683e-01
1.378223107087612198e-01 -1.413723946194350711e-01 -1.233085852548479466e-02
1.338599803993106019e-01 2.742939800634980330e-02 -1.531377127413451888e-01
1.360808844986557964e-01 1.824467195764181704e-02 -1.168626740454137281e-01
1.368742876508832196e-01 -1.002892188166081833e-01 -4.636753291293978924e-02
1.366751559542119521e-01 -2.012203475995361646e-01 1.177624058276413588e-03
1.353374594977498069e-01 6.523645354762674931e-02 -1.509296357052028192e-01
1.333070971003174898e-01 -7.394420601591467079e-02 -1.104193120120465776e-01
1.373748500727117183e-01 9.326297795817253822e-02 -1.358496272389590476e-01
1.356896492828428835e-01 -3.888546072855592062e-02 -9.392483098074794201e-02
1.370890375198423883e-01 7.244436236470946922e-03 -9.698592987343669647e-02
1.335085715228319370e-01 -5.504436906501650184e-02 -1.169796151934564127e-01
1.371913365483284075e-01 -1.326591599588096138e-01 -2.568396385595202169e-02
1.331985508029162879e-01 -2.202595100000501183e-02 -1.378866306488215898e-01
1.379574078990519204e-01 -6.983965168610214991e-02 -4.611354002490638399e-02
1.327128256447613341e-01 6.233988488659261695e-02 -1.869342660655081145e-01
1.059909137687087000e-01 -4.745966643653810046e-01 -3.001787262429297387e-01
1.059955992203950870e-01 -2.206430957572161899e-01 -4.268898403660952856e-01
1.051287906584143783e-01 -1.115016900430619712e-01 -4.937435068155824891e-01
1.072130357502401043e-01 -4.553077707524598172e-01 -2.923697316966951121e-01
1.077596717803180337e-01 -2.741619073636830106e-01 -3.750009520713985522e-01
1.093113371971249637e-01 -1.658225706957280332e-01 -4.069452402184903783e-01
1.059495256121456841e-01 -4.519907927323877916e-01 -3.120545280955732137e-01
1.162809465806186326e-01 -3.087081469972431380e-01 -2.361656302504241411e-01
1.072302157397568290e-01 -2.004687723232805863e-01 -4.193445841954648312e-01
1.131073339717090231e-01 -2.964204420430958109e-01 -2.875838348929584121e-01
1.164714882825315101e-01 -3.503975928063690626e-01 -2.126347238267957962e-01
1.053552541565895284e-01 -1.453812916116416498e-01 -4.735988437370955428e-01
1.081477833616733553e-01 -4.232795965151489037e-01 -2.950209213380515783e-01
1.087631393498182386e-01 -3.120569177381694592e-01 -3.417647320796549093e-01
1.219464385780692217e-01 -3.765112070260941968e-01 -1.214768232555687166e-01
1.143973950026929420e-01 -2.713132741351425570e-01 -2.817100067751109882e-01
1.055153404225409042e-01 -2.375001037825643646e-01 -4.253272997026145141e-01
1.051045824913680593e-01 -2.038661481602490055e-01 -4.479790115888416802e-01
1.185572951915860318e-01 -3.283221512459218450e-01 -1.938929848934710098e-01
1.098493832324445307e-01 -1.513112232251465350e-01 -4.065122264517843087e-01
1.215536415450275132e-01 -3.625031287200748409e-01 -1.340746787728369638e-01
1.229475634217262470e-01 -3.633139006452262287e-01 -1.137801908682286867e-01
1.138757480482757156e-01 -2.953223720963299437e-01 -2.771675839467346303e-01
1.056590276075899670e-01 -1.319373994745313972e-01 -4.759757508744299481e-01
1.083484768755734184e-01 -4.419798091222345571e-01 -2.828217785923182737e-01
1.063064008489251200e-01 -3.716957822106778386e-01 -3.470469540955126719e-01
1.165815963971615077e-01 -3.731752755121886533e-01 -1.996925924976170053e-01
1.123006553730368784e-01 -3.038743950925767434e-01 -2.953731129218637452e-01
1.079525562080740908e-01 -3.982584220300615097e-01 -3.102975975318252866e-01
1.078065262971818483e-01 -3.649848741932213425e-01 -3.289920091177523931e-01
1.106732418206334279e-01 -3.491303979156911153e-01 -2.960019481597840341e-01
1.092105999858677401e-01 -1.462213462926447161e-01 -4.181679166509210677e-01
1.196724326929450022e-01 -3.513545535884797788e-01 -1.664830258761346160e-01
1.119312855984270771e-01 -1.835309850515425278e-01 -3.607211057354510197e-01
1.074691737757623444e-01 -1.420864974375068979e-01 -4.450803464652597907e-01
1.097830060002207841e-01 -3.367420097933709333e-01 -3.148891326294839255e-01
1.200386788330972399e-01 -3.144709842844307657e-01 -1.796700044877827251e-01
1.124052971273660773e-01 -2.674536312071978950e-01 -3.120618588663637283e-01
1.090231819184124540e-01 -4.100565987111627897e-01 -2.891310907982290179e-01
1.068920823097229134e-01 -4.033212709645926930e-01 -3.229019363094866035e-01
1.052545169453323048e-01 -2.605408661110698576e-01 -4.175466215910017542e-01
1.237019211432337784e-01 -3.298181112824380423e-01 -1.197380050356685877e-01
1.145809085270762528e-01 -3.254971202336252034e-01 -2.520419661481678730e-01
1.070912140063941531e-01 -1.334783693440258490e-01 -4.547707428799569462e-01
1.072270921052992376e-01 -4.153863069571555044e-01 -3.120986413015425232e-01
1.177295320603251594e-01 -3.251777400790155093e-01 -2.072740009950101436e-01
1.111777087855339019e-01 -2.320176142434775823e-01 -3.472684648989141087e-01
1.164472801154851911e-01 -2.519836340467631608e-01 -2.621100813679397290e-01
1.083906459407508460e-01 -3.621909355624020055e-01 -3.220520443309843328e-01
1.067226251403987636e-01 -3.322725656898319890e-01 -3.607886346732080418e-01
1.199965097679197845e-01 -2.812493910445272860e-01 -1.968564990694820771e-01
1.148058102080226073e-01 -2.369807351551950214e-01 -2.930217610432207520e-01
1.163996446900069925e-01 -2.857083627541363580e-01 -2.459538245512545296e-01
1.091067391401529529e-01 -1.940809624116122678e-01 -3.957575570724904956e-01
1.097439605695009202e-01 -3.822994683472812349e-01 -2.927032046331465298e-01
1.126333224427700230e-01 -3.339900869707762565e-01 -2.755920495088398092e-01
1.069936004295945209e-01 -3.943768827031552959e-01 -3.259185758505761532e-01
4.231751089841127855e-02 -2.161524946340918629e-01 2.567112874031066139e-02
-1.569449953074753268e-01 -1.980749624659866037e-01 3.118793271861969307e-02
-1.229930940960347746e-01 -1.985024352633953104e-01 2.822710506469011671e-02
1.222423758150637252e-01 -2.156522935054451251e-01 1.756088367857039367e-02
-1.931135062207281761e-01 1.446630568878352618e-01 -3.382858039006592099e-02
-2.028425293225049886e-01 9.124536663576962581e-02 -1.408315062691271324e-01
-1.910176629221439215e-01 1.519238393023610301e-01 -1.928424200713635406e-02
-1.946146701240539789e-01 1.372470624165237352e-01 -4.868382970944046262e-02
-1.672836758039891736e-01 2.281755345789343581e-01 1.334583131473511541e-01
-1.914403367321193261e-01 1.087896976029872897e-01 -1.056878162544965805e-01
-1.918126812946796544e-01 1.684388372293114666e-01 1.379755336940288735e-02
-2.295791559702158036e-01 5.443947145044805702e-02 -2.145587389394640887e-01
1.170700563764571767e-01 5.029202179759739710e-02 -2.131947107219696047e-01
-1.318674136662483232e-01 6.025403001978990591e-02 -1.963738724665343716e-01
-3.133535728216171184e-02 4.076625484570861602e-02 -1.954466483907401630e-01
-8.587114703655258918e-04 4.747499326847492984e-02 -2.014639429327100550e-01
6.230780075192450529e-02 2.951817960403860241e-02 -1.980297125335782615e-01
7.363310976147652287e-02 3.275445940993723659e-02 -2.006368299772590125e-01
9.017244747877120603e-02 3.062796457961200480e-02 -2.010232376475632188e-01
-1.960130032420158430e-02 5.226427567206323732e-02 -2.022139536067098509e-01
1.270278324577212292e-01 -3.735471989051997732e-01 -4.065483301337063371e-01
8.871994651958346745e-02 -2.308320290302485200e-01 3.258055097542704448e-02
-1.565756770421564414e-01 -2.202283882050961317e-01 4.808957330130042562e-02
3.420476707294583391e-02 -2.292736098974942904e-01 3.668738154947756569e-02
4.378380687862633291e-02 -2.312859945597499634e-01 3.740271289251745346e-02
-2.340538616409897910e-01 -3.557567970044911432e-02 -3.924865667097270777e-02
1.122766156844794694e-01 -3.237044637016951998e-01 -4.352402736295759578e-01
1.357646876510977818e-01 -3.725705134615300840e-02 -3.982393907825649282e-01
1.497450306527316755e-01 1.935413941219449319e-02 -2.848394474174082425e-01
1.358738102874159914e-01 1.890307856760919947e-02 -2.857429839106649383e-01
1.397926917216181786e-01 7.045734439566742058e-03 -3.094948628819733649e-01
1.671015440069139046e-01 -9.255950888298450363e-02 -5.090177626962215651e-01
1.477973634226620314e-01 -9.024436781495809301e-02 -5.043802191504835886e-01
1.522110516831279015e-01 6.155659095361828981e-02 -2.003021757386624913e-01
1.527631902439892109e-01 -4.991698030993341195e-02 -4.235989567013085377e-01
1.368594463318586474e-01 -2.981339759342371831e-02 -3.833287361479550959e-01
1.262763900133967165e-01 -1.477491815961896882e-02 -3.532046089109033837e-01
1.490302338811755056e-01 -6.245193932048977853e-02 -4.487081908113509932e-01
1.530752784843742720e-01 -6.512478097744286987e-02 -4.540622575177997722e-01
1.627260941025614471e-01 9.068642890699207815e-02 -1.419511336476355912e-01
1.574418002372980352e-01 -2.146554870165882922e-02 -3.666068551506847517e-01
1.499770552605390328e-01 1.678782020226121663e-02 -2.899801351331174892e-01
9.435040891721845069e-02 -2.603854711791128151e-01 1.351172170328349131e-01
8.572195410966872153e-02 -2.827041873273998807e-01 9.040978173829616882e-02
-1.223474499538540830e-02 -2.650165207678080170e-01 1.258405921542644634e-01
7.150003695532679282e-02 -2.597025051710755150e-01 1.364852911067754027e-01
-5.726305855438112991e-02 -2.531814562600851470e-01 1.495478418701887136e-01
-2.266539735198021960e-03 -2.684610991214215758e-01 1.189406315107643664e-01
5.256568146005273501e-02 -2.607694229690730725e-01 1.343481090460717786e-01
1.058803024594485720e-01 -2.760305442482233196e-01 1.037779999387264396e-01
-4.038416582003236110e-02 -2.668094066878408110e-01 1.222491968100518078e-01
1.537906015530228487e-01 -2.646827730192243822e-01 1.265091349987685632e-01
-1.185236356504261596e-01 -2.519431741026789129e-01 1.520282898742705557e-01
1.324904741942882491e-01 -2.722617942986637063e-01 1.113273206625133849e-01
6.429918197885156617e-02 -2.760542420569807587e-01 1.037305298567563483e-01
-2.148505093090236351e-01 -2.070593947268277724e-01 2.419366269216686738e-01
-2.080179277673364080e-01 -1.699289869413525000e-01 3.163139025656134251e-01
-2.141505756500363677e-01 -2.656985069866478755e-01 1.244744799970090576e-01
-2.040877443519234502e-01 -2.553338998851180097e-01 1.452362029701471657e-01
-2.159839550963043864e-01 -2.388606119768321712e-01 1.782344474489986896e-01
-2.308456318536400709e-01 -3.114218871413916290e-01 3.288430760256946805e-02
-2.126644870041310698e-01 -2.599127825476974518e-01 1.360640758865326594e-01
-2.056686387977003927e-01 -2.090965565390885128e-01 2.378559137402475043e-01
-2.000750346739590124e-01 -3.036052161857485943e-01 4.854216671377420411e-02
-2.256722427767515471e-01 -2.388531897184252850e-01 1.782493152141571557e-01
-1.635921579866111142e-01 -1.235468419822305236e-01 3.685881109585613102e-01
1.187611123399436586e-01 -3.407416018660366364e-01 -1.847847352506220009e-01
1.216231424117088511e-01 -3.548417988757789354e-01 -1.369076446743309750e-01
1.058105238787830082e-01 -3.262539148099720121e-01 -3.768079330997169407e-01
1.146035548768937762e-01 -2.889355090732872444e-01 -2.699710099746286951e-01
1.119711119377613251e-01 -2.663058747915924007e-01 -3.188301850740611343e-01
1.144684576866030756e-01 -3.596272272358834732e-01 -2.366081824432313407e-01
1.053716532374918691e-01 -3.102270537437498144e-01 -3.910710194100439629e-01
1.086288230681419498e-01 -2.080615487127006058e-01 -3.955975472633540546e-01
1.190477058014273726e-01 -3.249710168252885056e-01 -1.885683069415390323e-01
1.144559631487727380e-01 -3.166809511862695437e-01 -2.582259822522103843e-01
1.074707355929911123e-01 -1.485284305872023314e-01 -4.418421377001703343e-01
1.140288061366975525e-01 -2.448649321480095287e-01 -3.001728309620916857e-01
1.242469953560829399e-01 -3.450157022838294396e-01 -1.043734960342943691e-01
1.104959755651652997e-01 -4.335368627031147559e-01 -2.563941905690729772e-01
1.197294390217960025e-01 -2.979465141494572200e-01 -1.923318159694969720e-01
1.131924530106782900e-01 -3.181327625577151652e-01 -2.755301173217594712e-01
1.101016167148947678e-01 -3.769138390336930766e-01 -2.902884420080482641e-01
1.147808211323619043e-01 -3.555645672093331600e-01 -2.341792480523884057e-01
1.192835402029752689e-01 -3.666795541517436918e-01 -1.643815925474464978e-01
1.097533314728736942e-01 -1.755507756309211131e-01 -3.957819800741970706e-01
1.192046684329211848e-01 -2.901039531095326307e-01 -2.037348576097190445e-01
1.085889967288077018e-01 -1.858941248978674410e-01 -4.072321830375492668e-01
1.089716419498622524e-01 -3.410196284063160554e-01 -3.243309474612772747e-01
1.085788449168205438e-01 -3.023623666600883109e-01 -3.492340974669158604e-01
1.060049701237678610e-01 -3.403104318790137750e-01 -3.670161443664133882e-01
1.079353762185573662e-01 -4.655846848730743059e-01 -2.769323137761652287e-01
1.060643191784620409e-01 -2.716521700994670163e-01 -4.004446784819662430e-01
1.064719534751772945e-01 -1.645664942704140876e-01 -4.480871872656047583e-01
1.130628221806883882e-01 -2.555893021093308959e-01 -3.086025736258923846e-01
1.082079133249819469e-01 -2.812598382772505401e-01 -3.650616280849278139e-01
1.098790577597916207e-01 -3.407036284233629919e-01 -3.115408714835345982e-01
1.065180270834267251e-01 -1.980700235010683374e-01 -4.307042318610846965e-01
1.188282704807818169e-01 -2.715646163524687573e-01 -2.183607980410754712e-01
1.241892081186175556e-01 -3.306362298499048169e-01 -1.123765354324877397e-01
1.208984592175483819e-01 -3.661675282363593409e-01 -1.415940811546146927e-01
1.129558377005159819e-01 -3.254854740585386708e-01 -2.752357588414848233e-01
1.226141154433786906e-01 -3.774996152748167355e-01 -1.114563762046396483e-01
1.055660994824767218e-01 -2.887189594970643314e-01 -3.990336936862766692e-01
1.114994431346655046e-01 -2.369380622665583913e-01 -3.402212966193258747e-01
1.197926926195621578e-01 -2.896945123963058366e-01 -1.955487970800697806e-01
1.109879479922354362e-01 -3.292627970828115869e-01 -3.014296827487646935e-01
1.159974767535925100e-01 -2.851653801195323523e-01 -2.519633862362802290e-01
1.110551061330735667e-01 -4.317443355198204435e-01 -2.493108707465231666e-01
1.065672243261337471e-01 -1.784996040324866862e-01 -4.397721296952664671e-01
1.166729627050459572e-01 -4.016875359238684107e-01 -1.841550868044793954e-01
1.078604089915752573e-01 -3.595151641087234173e-01 -3.309537350963056568e-01
