-1.292758658719062592e-01 -2.697362384986877193e-01 -3.687077943515032485e-01
-1.526000010275840590e-01 -2.586593796408176438e-01 -3.483417421370372247e-01
-1.175495912504196105e-01 -2.756997106111049867e-01 -3.791637053474411490e-01
-8.242437111377716452e-02 -3.114427005851268526e-01 -4.203093177388235735e-01
-1.382301775825023338e-01 -2.425795843553543163e-01 -3.483023689122870525e-01
-7.356547405540943274e-02 -2.986584254306554609e-01 -4.187072107264772081e-01
1.852268269723653660e-01 -4.889331479901075084e-01 -1.948438775481283747e-01
1.418635841062665381e-01 -4.540582748833298377e-01 -1.696562843050062885e-01
1.193226552015542730e-01 -4.371997363799809966e-01 -1.264566978634893701e-01
1.695736209321022092e-01 -4.748002305495738762e-01 -2.223499421824515210e-01
1.390619844087958579e-01 -4.530684087118506120e-01 -1.380805823911726293e-01
1.886323935168982002e-01 -4.921213249284028812e-01 -1.861720061768591672e-01
-1.646821050113439489e-01 6.476524268329145184e-02 2.562086399356275912e-01
1.409046586710214488e-01 3.879536193609200989e-04 -4.329305559216439780e-01
9.669622052609921914e-02 3.550380175769327074e-02 -3.968504293738305821e-01
1.763518532386422200e-01 -2.775386522203684980e-02 -4.622101736913621362e-01
2.032909093448519444e-01 -4.834618380993604969e-02 -5.033040856967866405e-01
1.632105712655186613e-01 -1.668121276408435216e-02 -4.665197309003770720e-01
-2.959920417943596727e-01 -9.572082457035777092e-02 -2.340139552176744020e-01
-2.527238236138225069e-01 -1.237693543305993099e-01 -2.759162465903535755e-01
-2.455615853586793074e-01 -1.307233478996157605e-01 -2.841224156329781314e-01
-8.523447198748590470e-02 1.466437286877632085e-01 2.525667943181842401e-01
-6.472429554939269913e-02 1.604577143621444268e-01 2.476019323456659649e-01
1.642512517490983259e-01 -5.093614625266194018e-01 -2.072268414662033487e-01
3.825645097374916204e-02 5.913703670144079827e-02 -2.423965873647853653e-01
3.357367981255056366e-02 7.719141870439052977e-02 -2.641821471324190540e-01
4.361263236999511628e-02 6.854704117655754936e-02 -2.481702638508379577e-01
6.479051151812077747e-02 3.275188570201398308e-02 -1.964301751944422803e-01
3.630116176605224787e-02 6.584834114313126152e-02 -2.506417645489424917e-01
-1.960458776128292113e-01 -2.487858049619197931e-01 1.041883503795787702e-01
1.256300642532110212e-01 3.256242524921892922e-02 -3.586344360317662017e-01
1.292837177580595243e-01 1.639811923682689410e-02 -3.697541037954389931e-01
1.251743845009803680e-01 5.633925660252572798e-02 -3.452891627651825113e-01
1.519384745818376792e-01 1.934690117657181241e-02 -3.820027227474749321e-01
1.558034218502044599e-01 1.391154533624650025e-03 -3.942362106205150041e-01
-2.167138935056329152e-01 -1.585174763891100680e-01 -3.170567532694339441e-01
-2.172426484528184043e-01 -2.322357448872924002e-01 1.282927830268070224e-01
-1.559070129340887068e-01 -2.805767824095487528e-01 6.924127543222161063e-02
-1.114996281230449665e-01 1.309573267352580894e-01 2.609581801113113886e-01
-2.824123510098457412e-01 -8.755185075283053453e-02 2.571127096655592137e-01
-1.710211427092551972e-01 3.242640999436377514e-02 2.423178890943527009e-01
-2.061958346104622031e-01 -1.295901279687881880e-02 2.389105164815858440e-01
-3.115400377017260025e-01 -1.397439538365602696e-01 2.337281968161836199e-01
-2.338809438130259322e-01 -8.907020292192700806e-02 2.986031812098622340e-01
-4.255087227314711951e-02 -2.492096173554658040e-02 -2.303017852775007535e-01
-6.489279572933911999e-02 -4.596485423147694815e-03 -2.670148077150434340e-01
1.039398206293583315e-02 -5.996741978347301660e-02 -1.541019866932556159e-01
-1.249343182861805193e-02 -5.047554733693600248e-02 -1.823713579541444696e-01
2.967851182103156682e-02 -7.544695577025413435e-02 -1.241204205570742430e-01
-5.550398058474063229e-02 1.545372290462255216e-01 -2.284714351473748351e-01
3.167928284108632864e-03 1.090157623139023646e-01 -3.020311403976380649e-01
-2.251825102686883656e-02 1.278524128413200123e-01 -2.439317895565926986e-01
3.602531230530142681e-01 -1.924344875988364401e-01 -1.712862135349214054e-01
2.843469638141989941e-01 -1.326311368140578317e-01 -9.770203265532852177e-02
2.710633511805534690e-01 -1.222299596071243499e-01 -8.329722683057189103e-02
3.993003140753507152e-01 -2.241786492055654612e-01 -1.858955629788339170e-01
3.561457601991295796e-01 -1.897067095759511213e-01 -1.552559888587892178e-01
3.673221642550826282e-01 -1.980021073791385089e-01 -1.781813974843919346e-01
-9.037171699792144464e-02 -3.980186377465722014e-03 -2.905726516436040185e-01
2.795277893453837481e-02 -1.091065592578053522e-01 -9.814311414074153306e-02
-8.799352386027574358e-02 -2.466779555171728922e-02 -2.722936478624120582e-01
-4.615370370715855819e-02 -4.462632622629404688e-02 -2.176109247080609266e-01
-9.904229440748689439e-02 -1.235889820039275111e-02 -2.921868923088535297e-01
1.018697195199131933e-01 8.657291509956122066e-02 -2.104657234479114514e-01
1.521057345741987366e-01 4.147546349942685118e-02 -1.283415410305187021e-01
1.134994454884528936e-01 8.005133217453958006e-02 -2.843475637937709632e-01
1.834056210038065848e-01 1.457021084338427919e-02 -1.054553177548572390e-01
8.470769896090031559e-02 1.035570874899625904e-01 -2.759210544706508506e-01
1.019577106148004675e-01 9.018800806581975249e-02 -2.978942309356853446e-01
1.064711497354507430e-01 8.394269991874694914e-02 -2.385154691959544826e-01
8.895940629214049711e-02 9.914383012205363332e-02 -2.548309813548251812e-01
1.353113909804821158e-01 5.992375687360765313e-02 -2.357290442777797701e-01
1.405749124264717154e-01 5.227730251073839374e-02 -1.578710350299999121e-01
1.037593113055825245e-01 8.632756288617851603e-02 -2.417732081080600781e-01
9.102630853742360584e-02 9.928037976652384633e-02 -2.986754002953693199e-01
1.995660943138599375e-01 -1.070665019750574598e-03 -5.216744202386588286e-02
-2.839174278128147044e-01 -1.642619360578060350e-01 2.848972277424484667e-01
-2.769070791190862968e-01 -1.384219429522753064e-01 2.853269449659809331e-01
2.269479057204723538e-01 -3.774983774900438072e-02 -5.018245372859762021e-01
8.514305672645557099e-03 1.040050672340392945e-01 -2.882845588026941019e-01
-9.397841642797007122e-03 1.170326382312178448e-01 -2.452069095121324205e-01
9.915561456680287156e-03 1.035471463048457941e-01 -3.049587815438210558e-01
1.200930463311076501e-01 5.782091725021601403e-02 1.131080396603420246e-01
1.876041835290193638e-01 -4.910699450117349540e-01 -1.908954251231252952e-01
1.035349654176831447e-01 -4.246819037273525943e-01 -1.130332521690428083e-01
1.717911067113280232e-01 -4.784414346501231208e-01 -1.795969514812529311e-01
1.073179435968399376e-01 -4.282500647246837433e-01 -1.027682477797567939e-01
1.660680004489422101e-01 -4.726215369248390474e-01 -2.051251830233633555e-01
-1.550356032702326914e-01 -2.146277154627442285e-01 -3.856505871978029854e-01
-6.653883330196143364e-02 -2.726822278514504649e-01 -4.717309708862751916e-01
-1.878535120758414445e-01 -2.042416017583012500e-01 -3.598521017629280894e-01
-8.925552667468789059e-02 -2.527473740711808081e-01 -4.468689719590545062e-01
-1.800017614832520596e-01 -2.056532656368613154e-01 -3.654346563128754721e-01
-1.531374046137929101e-01 -2.267347016522288372e-01 -3.934659194926545256e-01
-1.386009357362983502e-02 -3.603684275445342422e-01 -1.161736391827464243e-01
-4.399021637439687327e-03 -3.641238203001022078e-01 -1.042821059798821892e-01
-1.782114327996967007e-02 -3.423858264866471157e-01 -1.334939478944614788e-01
-3.191588063478467685e-02 -3.111329043149948514e-01 -1.705062857354804895e-01
-5.407732063382862664e-02 -3.117190760317444798e-01 -1.913043319645896800e-01
-3.932233690708874380e-02 -3.310031719830632269e-01 -1.626606132207438493e-01
1.579279972076416683e-02 -3.602933620715141338e-01 -8.781161221724007038e-02
3.881843051290512214e-01 -1.705847322010994038e-01 -1.900135241831094057e-01
3.091146837556362215e-01 -1.494815044438839169e-01 -1.300105703375488697e-01
3.301763443177938573e-01 -1.387800390607118739e-01 -1.370235002122074663e-01
4.013982555687427567e-01 -1.832656424939632656e-01 -2.050716783490776907e-01
3.837211829882860581e-01 -1.798206991559266887e-01 -1.923567596395686363e-01
-1.717896240654588069e-01 -1.188651647350192075e-01 -3.227685783972591427e-01
-2.817620706230402478e-02 4.253275753766297407e-02 -3.219932145503163756e-01
2.332838357478378422e-02 7.732605804651976333e-02 -3.344036872788518355e-01
-1.069071242174506192e-01 -3.682200305968522103e-02 -3.174032506946101728e-01
-9.584727230638268036e-02 -3.955735791951416752e-02 -3.256772040494159137e-01
-3.535428891748192137e-02 4.518110249012710633e-02 -3.161434703562781001e-01
-7.078352076381445868e-02 -2.233159582048653558e-02 -3.315548282994330020e-01
1.001353632003068594e-02 5.716712316006422601e-02 -3.373305584341287910e-01
-8.288022430241105687e-03 1.567336430460214425e-02 -3.489289275460690787e-01
3.817566221863032128e-02 7.912441389769317435e-02 -3.425048247198387852e-01
-7.713502158224597172e-03 4.551259024530648900e-02 -3.328828102912381182e-01
-7.964670887619257345e-02 -3.997669562190770548e-02 -3.358255237369611734e-01
-3.548104700207709711e-02 5.499083919644354168e-02 -2.942168107280507261e-01
5.395608766406775891e-02 -2.430577836006879433e-02 -1.490396914193034272e-01
8.551035387426614287e-02 -4.396434523254633825e-02 -1.054801654350385059e-01
-1.970159059643745991e-02 4.953358689665796066e-02 -2.764715354128554625e-01
-3.815030758470297489e-02 4.978834683030841646e-02 -2.915699216244742598e-01
-7.624323144286873633e-02 2.519490744680166761e-02 -3.017321637322754047e-01
-8.362703684628008949e-02 1.612471260011195950e-02 -3.008366295565664816e-01
-8.289000075727702421e-02 1.149172764807940283e-02 -2.963622545785830065e-01
1.843110421806574278e-02 -6.043640175849199214e-02 -1.465510840889066579e-01
-3.348519286096095920e-02 -1.978442551791667614e-02 -2.264379462659359132e-01
-2.171424223029613521e-01 -1.895728903055189651e-02 2.924284121201560227e-01
-8.648851503789425910e-02 -4.657671158909790221e-03 -2.864203921325132463e-01
-7.751713992625475225e-02 -2.986728660672902796e-02 -2.584375734260678237e-01
-7.852610543727872594e-02 -3.911839554190636725e-02 -2.521948914228379635e-01
-5.809332599610091130e-02 1.618570734760165497e-01 2.637479986006021626e-01
-3.863194906145336893e-02 1.455196503677964048e-01 -2.589969083878770340e-01
-5.454745962321767838e-03 1.223926497623324394e-01 -2.920169726262986654e-01
-2.386867995300889222e-01 -1.645667799207568005e-01 -3.069294180700927743e-01
-2.176731445452571023e-01 -1.730431062260269770e-01 -3.244519142280146706e-01
-2.504442788419127819e-01 -1.658941587045788812e-01 -3.004610146773234458e-01
-1.306667676553130431e-01 -2.260544798067211925e-01 -4.068484849784150814e-01
-1.457325120070576685e-01 -2.279227022501826294e-01 -3.986519987415895194e-01
-1.083462185066938338e-01 -2.651917522436380570e-01 -2.783058317644894197e-01
-1.134301930254697638e-01 -2.612185853916406675e-01 -2.861662615978717850e-01
-1.216357173815369591e-01 -2.635289533385634098e-01 -2.922926449445262809e-01
-1.301230565905567987e-02 -3.899967456042766623e-01 -9.307861125495286991e-02
-1.410392605951428235e-01 -2.320063813421130161e-01 -3.345955850710720103e-01
-1.242126335906982154e-01 -2.915593069100380075e-01 -2.736815342649072669e-01
-9.738696352839468218e-02 -3.000987232148647488e-01 -2.415503542494774059e-01
-2.018695550182461884e-01 -1.558023959967493877e-01 -3.246523143761232966e-01
-1.649889721748233062e-01 -1.467194089952111036e-01 -3.422389009956643413e-01
-1.626779495796561448e-01 -1.563181995525955992e-01 -3.489286086621880556e-01
-1.163194483098387855e-01 -8.350073316484689367e-02 -3.372928968191892252e-01
-6.462376185357575353e-03 7.801691648662095746e-03 -3.543723714524880108e-01
-1.097895677879452830e-01 -1.097200664016604182e-01 -3.556990067240223263e-01
-1.187278941687941597e-01 -8.891337638169527491e-02 -3.387929238120094277e-01
-1.155859353956580349e-01 -1.265586508110165542e-01 -3.614039771453663730e-01
-4.623651773363353368e-02 -6.346433376520871361e-02 -3.691864062934369084e-01
-1.857868548658490326e-01 -1.650702112004160949e-01 -3.395910672773793659e-01
-7.738661525279283415e-02 -9.852034677952528630e-02 -3.693811896021292340e-01
-1.672754112187027908e-01 -1.540312294957041916e-01 -3.448572927743196459e-01
1.227893535429239180e-01 -1.264063951832056221e-01 -2.483584791123866209e-02
-1.300033941090106837e-01 -2.352683796143531791e-01 -3.493209548148885624e-01
-7.505056531369685979e-02 -3.053544690889120061e-01 -4.214777885548770531e-01
-5.212870263874531257e-02 -3.390395836716890154e-01 -4.540217028701305502e-01
-1.208979729431867711e-01 -2.422994319695234433e-01 -3.587590743443369590e-01
-1.265682352966070179e-01 -2.629454458850621901e-01 -3.666335786527395446e-01
-6.028774592697621476e-02 -3.320653754204511143e-01 -4.451941876576467894e-01
4.991043980240822409e-02 -3.699029394662380343e-01 -4.788718282509597107e-02
-8.248129644989964093e-02 -2.161943678390979839e-01 -2.903670352419838174e-01
3.778054968416692805e-02 2.754694239795205113e-02 -3.584217598191276055e-01
-6.123964568704363953e-02 -2.061129580727219524e-01 -2.775915604804083392e-01
5.761318214207888921e-02 -3.771051584035158694e-02 -2.903366389176622597e-01
-9.163884791463611235e-02 -1.828241859999299168e-01 -3.242400407584384303e-01
4.244829565435649654e-02 -3.621040209808945587e-01 -6.090401041071864113e-02
-4.426408571362493855e-02 -1.582215920603275428e-01 -2.973402714167162619e-01
3.121274580091237816e-02 -2.553243200024962745e-01 -1.519775157230347506e-01
4.820961821198466168e-02 -1.957980804800987795e-02 -3.129842834111675742e-01
4.977293823391200356e-02 -9.898253835827114377e-02 -2.517697297052666761e-01
3.688627410650252569e-02 -2.737973475313186800e-01 -1.326471822742745499e-01
-5.864060163825748906e-02 -1.366602509799599852e-01 -3.273339224015921478e-01
2.825575567692520385e-02 -1.276676241368056297e-02 -3.372313709924370517e-01
-6.371543752968308882e-02 -2.101847173351049647e-01 -2.769020453551411798e-01
-2.713836982131003980e-02 -2.481047084462642827e-01 -2.133291934994980821e-01
5.024600569754841817e-02 2.065177014321087356e-02 -3.412895811310783234e-01
-1.440780684947965892e-02 -2.343154413199424746e-01 -2.114990645317733620e-01
3.294275691866875577e-02 -6.464336693882943852e-02 -2.937247101173550146e-01
1.253556397646667098e-02 -1.784754570266604556e-01 -2.276728192732110634e-01
-6.110732892721890130e-02 -1.582403577926755067e-01 -3.134682388878986536e-01
-4.996365494728087497e-02 -2.498798891377449205e-01 -2.338692333322018313e-01
-1.685140048891305142e-02 -5.257030777543784256e-02 -3.505257711887732608e-01
-1.812555353313682893e-02 -2.167257081875205160e-01 -2.282907349213212922e-01
4.803442415297037860e-03 -2.042401966181397466e-01 -2.157062068458646675e-01
2.761978042393924138e-02 -2.543671186521649363e-01 -1.561407917874679252e-01
3.905114935636522233e-02 -9.123690766811372310e-02 -2.678704311033710539e-01
-1.102257314532994331e-02 -3.131071144253017718e-02 -3.609282686446234623e-01
1.452470857411624489e-02 -2.173416108444333195e-01 -1.965364602212608114e-01
-3.187295236349103889e-02 -2.325278543186187763e-01 -2.295815467631444340e-01
2.512956207484008664e-02 -8.703391042441130376e-02 -2.843734234673157557e-01
-1.485674362796544912e-01 -1.966900365287065355e-01 -3.683706920012086994e-01
-8.396524557709691972e-02 -2.004756144058704448e-01 -3.036107928266749134e-01
1.350055052518846221e-02 -3.023933953762054649e-01 -1.335531940043717669e-01
-4.991066355645654151e-02 -2.008892901498079420e-01 -2.706627467939257681e-01
-1.999662993729114588e-02 -2.825641910356283537e-01 -1.805688548507168867e-01
-9.397776157259927349e-03 -2.270564533859491252e-01 -2.121568530273437725e-01
-9.183496792048215229e-02 -1.576324989297986368e-01 -3.433738773231581054e-01
-4.542619252771138566e-02 -7.272379779726267923e-02 -3.627542210774868936e-01
4.069167446553707823e-02 3.581883686184880733e-03 -3.376084495118260587e-01
1.053449817389250087e-02 -2.754802226468920923e-01 -1.566363297621533590e-01
-3.615813825815915317e-02 -3.024532047966123072e-01 -1.810996744412183834e-01
9.842820679247396565e-03 -1.951152753511071203e-01 -2.177391796340421015e-01
2.411350086748600963e-02 3.097029468417167308e-03 -3.531318512878194316e-01
1.085757967829795168e-04 -2.066420778843760520e-01 -2.183992523274943531e-01
1.832820678949360904e-03 -2.541547520625591083e-01 -1.810139877350628590e-01
5.731578017175206763e-03 -9.363549066483983774e-03 -3.613773464449867578e-01
2.615624609649183641e-02 -1.718196435779333342e-01 -2.196247780353576262e-01
-5.202063145875929911e-02 -2.415379530239105399e-01 -2.421142900732904668e-01
-6.185010360866782797e-02 -1.448107939514517994e-01 -3.242800481976568783e-01
-1.925540965974329236e-02 -2.962741881018877144e-01 -1.695476301700249433e-01
-1.069688772979378588e-01 -1.552803215298056982e-01 -3.596467805889993485e-01
-1.656847412437199157e-02 -2.015358082309365306e-01 -2.382223239124566516e-01
3.025060665965080553e-02 -2.788992102682590346e-01 -1.351696638251468630e-01
5.119190762966872865e-02 -1.167097049614787274e-01 -2.370777820326760432e-01
4.923906569093466912e-02 -1.838705127391219163e-01 -1.884397844360768959e-01
-3.835324859917145501e-03 -2.098688567608596178e-02 -3.618044431034103114e-01
-1.282591664105653395e-01 -2.192815271800756527e-01 -3.319174750764295467e-01
-8.740541056513785600e-02 -1.919522617757320471e-01 -3.133178953752666640e-01
-4.472315044403075979e-03 -8.304812638521195944e-02 -3.157405960409343515e-01
5.748294105648996122e-02 -4.492114623904229498e-02 -2.850385683922097013e-01
-6.646816849648952419e-02 -7.107523125708102574e-02 -2.499711540123447928e-01
-6.884678224116563827e-02 -6.732960340231657070e-02 -2.550677188014611740e-01
-8.740590172857046203e-02 -2.446216034665703587e-01 -1.395184718115255185e-01
-3.969087568968535096e-02 -3.662591907531023011e-02 -2.502168169701471934e-01
-1.085757147440314235e-01 -2.048838461676240064e-01 -1.896925383920222419e-01
-1.892934624254703768e-02 4.169979132711887360e-02 -2.892258830457926089e-01
-6.074736257195472583e-02 -2.184534456098079780e-01 -1.336499474170058932e-01
-6.991650656282902276e-02 -1.246005038446187929e-01 -2.130212569592148109e-01
-1.200622013688087408e-01 -2.110934432816505280e-01 -1.960308133212104453e-01
-6.782321582227944512e-02 -1.712500383600592535e-01 -1.759314497876912353e-01
-4.547546386241914373e-02 -3.876088584899901879e-02 -2.541549583454058014e-01
-4.753967059463262701e-02 -8.515429951578379342e-02 -2.212421978452056570e-01
-8.155040925890207071e-02 -7.911656832069159651e-02 -2.583779020571336238e-01
-1.014274373605847379e-01 -6.044175184696912173e-02 -2.914722209757938942e-01
-4.555259750843047850e-02 -9.096413145542145418e-02 -2.149684509784728359e-01
-3.966062182784080986e-02 -1.263148156416416257e-01 -1.827356055743247221e-01
-5.979677614480256864e-02 -1.152449104067683194e-01 -2.103588474731147295e-01
-1.321274918165802892e-01 -9.485907581657171406e-02 -2.950100774637982037e-01
-1.044082871782779781e-01 -7.562853314757346512e-02 -2.829074781005084804e-01
-7.316417776644229543e-02 -1.596381203263997905e-01 -1.897830350961536294e-01
-7.136636836379767201e-02 -1.681634459152817618e-01 -1.816484351748600679e-01
-1.182866948074102476e-01 -6.792130897581576121e-02 -3.020045079158991674e-01
-1.194926205927133445e-01 -5.918916941106320412e-02 -3.097274019058048333e-01
-3.701745665669441132e-02 -7.061737010359764311e-02 -2.220907806183025079e-01
-4.408561812371015326e-02 -1.626039081409573483e-01 -1.596845022562891070e-01
-1.863078140020370602e-02 -7.815746398687363483e-02 -1.987988500454649365e-01
-8.996481012344360872e-02 -2.608313229274750178e-01 -1.297800325631350282e-01
-1.103747969278693203e-01 -1.934451497450470903e-01 -2.000194132920354584e-01
-3.150226042956113387e-02 -1.136552389863133422e-01 -1.844377383819594818e-01
-9.273523989617830920e-03 -8.638187700808055980e-03 -2.421143989733234025e-01
-8.443593151390552110e-02 -2.681717196166515105e-02 -3.004760457351431380e-01
-5.572261928170919171e-02 -2.545421586528420210e-01 -1.016931841855868712e-01
-1.098632858523726497e-01 -2.177389539685845310e-01 -1.812585846199840367e-01
-1.084266950497031201e-01 -1.162818838253617260e-01 -2.561844898890703881e-01
-4.512913006633520463e-02 -2.742912477627396650e-01 -7.668801544494927014e-02
-1.087043637767434040e-01 -1.395183447799086540e-01 -2.389751833142340076e-01
-2.667139959037303359e-02 -1.892943167477846300e-01 -1.229221928883343917e-01
-2.651841448664665410e-02 -2.028386314451694483e-01 -1.125893204385414736e-01
-5.562324252277613124e-02 -1.771821962508559056e-01 -1.597779551242292095e-01
-1.330871474295854395e-01 -1.254148070639372059e-01 -2.729497730234265451e-01
-5.698991122871636950e-02 -2.705961066350340838e-01 -9.083404768854379252e-02
-7.862714892834424263e-02 -1.231688783437014101e-02 -3.058142859823256288e-01
-8.992345847815275128e-02 -1.645099204590916575e-01 -2.021807197672873813e-01
-1.082312393599748762e-01 -2.458837408083677234e-01 -1.585276632741838831e-01
-3.444524840950966005e-02 -5.857991550803184205e-02 -2.286786436187475957e-01
-2.228505535870790311e-01 -2.380400252521039373e-02 2.431466737640649023e-01
-2.156124529993534156e-01 -1.249108142614364925e-02 2.449324543385207331e-01
-2.257709854537248428e-01 -2.048145183640718292e-01 -7.202985202584415159e-02
-2.641239087879657665e-01 -1.815525310564041206e-01 -1.262808062127604991e-01
-2.055387534508109071e-01 -2.162659173491597309e-01 -4.402762250144034994e-02
-2.332723122155666295e-01 -1.997987127995490830e-01 -8.299113882813602405e-02
-1.994457101547718325e-01 -2.236276570320129553e-01 -3.265169037319720635e-02
-1.847308085587620885e-01 -1.695387137874961037e-01 -2.867533682837337672e-01
-5.858357416033745102e-02 -2.614390134382247877e-01 -9.084753332633525857e-02
-8.116960015147924035e-02 -2.463091459909081404e-01 -1.253062812009826388e-01
-6.718539343893528692e-02 -2.491021600037813255e-01 -1.071085540488734833e-01
-4.777225733429193988e-02 -2.698967674955725649e-01 -7.379448473539201858e-02
3.068008766332268600e-01 -8.961159222990272566e-02 -5.999270464431494948e-02
3.101774503064155808e-01 -9.168955199480055551e-02 -7.707015593301504153e-02
1.805154153779149062e-01 9.185962981879736144e-03 7.896662824142725023e-02
4.214452001577615459e-01 -1.784352357405423473e-01 -2.066872823978588014e-01
2.602463864850997899e-01 -5.380837552666662554e-02 5.884255759604273273e-03
1.788205064594745874e-01 1.080697125434876282e-02 7.383782538164407327e-02
3.275800304180383482e-01 -1.067137283307313667e-01 -6.280485619794576313e-02
4.264261165726185299e-01 -1.837832184183597339e-01 -1.777649013687297719e-01
2.746475345209241081e-01 -6.549972815662621906e-02 1.088512991741230618e-04
3.231746069464087601e-01 -1.031450566348433295e-01 -6.085310694705697854e-02
1.978970575839281154e-01 -4.109705258011797646e-03 5.266708086717872273e-02
1.149586031988263368e-01 6.003285409182310128e-02 1.615453665303067110e-01
3.582669885611534100e-01 -1.289050467956066037e-01 -1.396257914091274255e-01
2.956386095085740129e-01 -8.112976133495566899e-02 -4.176464039336889866e-02
4.083750550112128508e-01 -1.701352019724249598e-01 -1.466664239693805660e-01
3.906727879711985874e-01 -1.543558743259310639e-01 -1.729456299592181945e-01
2.116600697568059020e-01 -1.498104340583084060e-02 3.998944760788233910e-02
-9.903471319675447027e-02 -7.778550544381140908e-02 -2.443140022485703333e-01
-1.343856365069746872e-01 -6.166399636179208110e-02 -2.914683463015034781e-01
-2.926146655380725686e-02 -1.401636399763822594e-01 -1.305169193322583965e-01
-8.337977132141589920e-02 -8.896181060492992787e-02 -2.207005129474028937e-01
-6.503212071985006726e-02 -1.122273001208901333e-01 -1.861237548856064516e-01
1.716540057003498876e-02 -1.614839629966020595e-01 -6.897969203125686732e-02
-7.453612011015414707e-02 -8.876617298901080810e-02 -2.117889885192736910e-01
-4.380150613486767652e-03 -1.515281225493550210e-01 -9.733645972009748182e-02
-7.720641142845152682e-02 -8.596724200963974660e-02 -2.164373466027155191e-01
3.224246382713333303e-04 -1.425574738025665311e-01 -9.926097183134406643e-02
-1.647212790286541051e-01 -2.589147950541973442e-01 -2.711108612750843250e-01
-1.870366390454769046e-01 -2.394833745110035161e-01 -2.933359349654987014e-01
-2.025371082660555877e-01 -2.273799194136262025e-01 -2.757320829724148048e-01
-1.213804619136452656e-01 -2.976606796202063698e-01 -2.040912434052303270e-01
-7.438758991092445094e-02 -3.376874446800351426e-01 -1.784569625710323293e-01
-1.587661296623945617e-01 -2.616148838108778296e-01 -3.240999954437091546e-01
-6.647863849401473846e-02 -3.451639302444458046e-01 -1.566016450332477772e-01
-1.549881876817345572e-01 -2.686961384508013695e-01 -2.304542626570537656e-01
-7.116564424872398598e-02 -3.406840144300460893e-01 -1.707198479245975453e-01
-3.696226869374515805e-02 -3.712653763625025638e-01 -1.177307204865291612e-01
-5.172090063035488655e-02 -3.586763551813363926e-01 -1.262122444986179537e-01
-1.667965695247054236e-01 -2.550723369243741434e-01 -3.214284392498806264e-01
-1.368066834148764510e-01 -2.815768660047650584e-01 -2.823049153183773141e-01
-1.409949793407321295e-01 -2.789542754736542562e-01 -2.621910542248562237e-01
4.145910289773345192e-01 -1.978817484113573610e-01 -2.015625496670603867e-01
-9.066914808720349939e-02 1.081060539349913696e-01 2.991632275219634485e-01
-9.030661192536218462e-04 9.242827908426523575e-02 -3.044588960947096079e-01
3.238392933654785089e-01 -1.017848165106773062e-01 -1.061578589988872445e-01
3.103848147669434621e-01 -9.144174286991357814e-02 -8.701872850906104684e-02
2.110060022899508669e-01 -1.405883894652126820e-02 3.097769192684440842e-02
3.143079050043225409e-01 -9.461108976989981989e-02 -8.896076408397404767e-02
-1.533682005974650320e-01 -4.344477893412135305e-03 2.958739526733010772e-01
-1.698851277765631440e-01 -2.526728639632463969e-02 2.944875947598368238e-01
-4.330857801020145809e-02 -3.084927679598330891e-02 1.293606152280047383e-01
-5.514001989722253083e-02 -3.580168411731719791e-02 1.338822014723718146e-01
-1.194218595385551501e-01 -6.064441495776175944e-02 1.595830525036156522e-01
9.624054351866245804e-02 3.846084376394748316e-02 8.201822475749998009e-02
1.441071472167969325e-02 -1.961598070859923992e-03 1.099001705407351148e-01
-8.174622362852095037e-03 -2.547531802582740923e-01 -1.519220835290849281e-02
-7.997998191237451482e-02 -2.984701005327701773e-01 4.742377927117041869e-03
1.047491059875488295e-01 -1.475689260315895257e-01 -2.542137614507228305e-02
-6.253462120890618259e-02 -2.879788510239124077e-01 -1.721991952136209258e-04
-2.966702866792678139e-02 -2.827572574448585785e-01 -1.742404827456921212e-02
6.422897132515907603e-02 -1.817617535030842113e-01 -1.940553052607923989e-02
1.338145903199911002e-01 -9.470963561594486491e-02 -1.416680150922387804e-02
-7.197417911410333713e-02 -3.222788760626316140e-01 -1.324258497271686708e-02
3.173994209766384245e-03 -2.001195499682426604e-01 7.883584663756187938e-03
-6.780632683575152364e-02 -3.488417815476655970e-01 -3.039148345600814483e-02
6.419754534363747434e-03 -2.331471923726797235e-01 -1.225344387184829076e-02
-9.877955784201624539e-03 -2.745116116470098788e-01 -2.500747843306512508e-02
-7.910431574583064174e-03 -2.166184752261638702e-01 5.602584376223379570e-03
9.106030102252959946e-02 -1.543023543715477119e-01 -2.074146608013659188e-02
-3.512071479380131367e-02 -2.446441121059656221e-01 6.859342716224486880e-03
5.536031197547913729e-02 -2.092579462134838142e-01 -2.908644165404140891e-02
-1.010147133731842117e-01 -3.166223386704921650e-01 7.644327692762020732e-03
-3.496513858020309368e-02 1.774278862303495519e-01 2.387093552249670014e-01
-2.159324320292472787e-01 -4.100602629661562193e-02 2.294582534513994743e-01
-3.040032419914007189e-01 -1.338344274002313816e-01 2.323617391647398445e-01
-3.423091447293760692e-02 1.593634831792116457e-01 2.283327642270550073e-01
-1.568767166095972332e-01 2.898716873526580029e-03 2.174321305041387875e-01
-2.157137923645973121e-01 -9.215636490106585144e-02 2.012152697430923398e-01
-5.156952638447286075e-02 1.580342388767004003e-01 2.382168746506795332e-01
-3.126352903664111199e-02 2.233612065494058885e-02 1.512141957471146991e-01
-2.156812825232744257e-01 -5.984706502974035391e-02 2.189506054854020722e-01
-7.763379482328891523e-02 1.559453577935694668e-02 1.758969961293413986e-01
7.116449511051364807e-04 5.796388927221299281e-02 1.512180750524252382e-01
-2.771693509316444093e-01 -1.049673116016388019e-01 2.317978315427526304e-01
-4.598323948144913270e-02 1.306884424972534209e-01 2.197693904286250333e-01
-1.179720772463083295e-01 3.428250504791736930e-02 2.108616021621226855e-01
8.421106561124325207e-02 7.382200197756288995e-02 1.088149459209292735e-01
-8.024178025543690640e-02 -7.556159918904306605e-03 1.647713645895197976e-01
-2.096081234496831591e-01 -2.592796179234983789e-02 2.338725466128065977e-01
-2.384510378479957615e-01 -5.436154566645622077e-02 2.359046078804135083e-01
9.695335028767577967e-03 3.646118822276590843e-02 1.339017352007329520e-01
-2.196812179744243587e-01 -1.052865892100334211e-01 1.964285237451642296e-01
6.957070077776905670e-02 6.224719152450561288e-02 1.114168636613339092e-01
8.666838802933690689e-02 6.126355083584786310e-02 1.004092239371314477e-01
-6.930983158588407966e-02 1.372340781569479640e-02 1.697728624574839640e-01
-2.831523037838935553e-01 -1.168968857252597887e-01 2.289047826594859392e-01
-3.027490611493588446e-02 1.465306758314370850e-01 2.188587871066108304e-01
-1.045758745211362722e-01 8.854124345481392822e-02 2.324778586570918626e-01
1.825292212307454143e-02 7.742244066178796680e-02 1.511726655300706379e-01
-8.188064993798732649e-02 2.297857376992702705e-02 1.825547134469449606e-01
-6.613248856604098114e-02 1.094028880792856373e-01 2.204073725681752194e-01
-9.158113256096842014e-02 8.096004720687868805e-02 2.203563970140368089e-01
-6.890825872421263432e-02 6.386633328914639862e-02 1.970825428310408745e-01
-2.308797738718986470e-01 -1.088941103136539662e-01 2.013017295660823880e-01
3.932906251668928654e-02 5.492681557893749900e-02 1.259077571061626155e-01
-1.720411719655990657e-01 -8.008467899680137003e-02 1.811130512114614288e-01
-2.544652949535846642e-01 -1.103504733419418404e-01 2.149402994120865884e-01
-8.828936304807663560e-02 5.428452053785320919e-02 2.036819407704844598e-01
1.737825341224669140e-02 2.276117820143699899e-02 1.216696064186096327e-01
-1.066019087225198725e-01 -8.473518797755250076e-03 1.804047346946596742e-01
-4.503424741089344374e-02 1.182595129960775371e-01 2.123582355019077439e-01
-7.509156545937062388e-02 1.150363745123147985e-01 2.289878833633661182e-01
-1.962753311932086686e-01 -5.795809240341204260e-03 2.367737140055745648e-01
7.173206917941571392e-02 3.154373868763446498e-02 9.322092672355472565e-02
-3.944365847885610704e-02 3.882665563881397552e-02 1.652842176548391384e-01
-2.650806344288587635e-01 -1.172986200660467299e-01 2.176206581297143727e-01
-6.252108983278276133e-02 1.250096411550045139e-01 2.267730263481289588e-01
-2.356109642982481822e-03 3.475488319873809573e-02 1.403418672742322293e-01
-1.464098491990566409e-01 -3.747202209353447250e-02 1.888390663364902244e-01
-6.972655102252961479e-02 -2.665384712457656569e-02 1.478390768879279393e-01
-8.665014036297798150e-02 7.785253304481506986e-02 2.156299745025485604e-01
-1.277446864432096318e-01 5.413095657408237282e-02 2.277518375089392366e-01
-6.802472752332686112e-03 -5.762226524353028512e-03 1.207981469894945648e-01
-9.987441028535365417e-02 -3.757848162710667600e-02 1.602918768359720691e-01
-4.625147842288018785e-02 2.410609328746801672e-03 1.494398620516806941e-01
-1.979954339230060589e-01 -6.760427665352822246e-02 2.038605521899834461e-01
-5.627789836227893583e-02 9.351607922136784268e-02 2.056440283165871796e-01
-5.647109571635720859e-02 4.848023360192774134e-02 1.810133242001383813e-01
-8.026417225837709224e-02 1.072207822561264123e-01 2.278595417595282169e-01
1.090371978002786513e-01 -3.931881689131259960e-02 -9.191128934506326287e-02
4.320278971493243803e-03 3.610383128494022709e-02 -2.449099022389948366e-01
1.971865385949611582e-02 2.100749633491040547e-02 -2.185153625721484583e-01
1.439037449094653365e-01 -7.613198943942785235e-02 -2.959656001448629503e-02
-1.745016065329313415e-01 -2.475818332237005315e-01 -3.476222730563953700e-01
-2.476336462986469256e-01 -1.901732480871677622e-01 -2.717692026256397497e-01
-1.641598931199312328e-01 -2.557411273664236262e-01 -3.573754352449253213e-01
-1.847326214253902643e-01 -2.395425073230266766e-01 -3.371999670146778039e-01
-5.465840441733598593e-02 -3.422223940953612598e-01 -4.585600425337628128e-01
-2.193565986883640462e-01 -2.128063745903968906e-01 -2.907703235982730949e-01
-1.435228625994920959e-01 -2.717392952007055551e-01 -3.835661579393223053e-01
-3.084165676659345601e-01 -1.413952256923914075e-01 -2.339357952474430125e-01
-1.261754221779108065e-01 -2.973721755617856899e-01 1.635226201485839859e-02
-2.451193341088294952e-01 -1.924802103900909445e-01 -1.765261372253671412e-01
-1.860609705680608683e-01 -2.215389309293031850e-01 -9.807214180618524513e-02
-1.771505143907666224e-01 -2.411997969743609471e-01 -7.474629340667277022e-02
-1.359710674837231736e-01 -2.545448949739337330e-01 -2.524466281551866753e-02
-1.331897047987580240e-01 -2.624902895841002559e-01 -1.660360164444893427e-02
-1.242430941098928432e-01 -2.681995459109544622e-01 -3.735673579201098660e-03
-1.889850878062844242e-01 -2.367766386207938167e-01 -8.941472790848463414e-02
-1.404960881847143184e-01 8.375190583646296982e-02 2.840532378154992377e-01
1.432425356444716469e-01 -4.803241867989300334e-02 -5.769896456699817600e-02
2.494323248952626249e-02 5.468294386893512993e-02 -2.473769760320708444e-01
1.177280852770805353e-01 -2.453183227181436610e-02 -9.998294762071222030e-02
1.239025203457474744e-01 -2.719558522373437953e-02 -9.283450869541616524e-02
-1.430304815772175941e-01 -6.872463271826505238e-02 -3.128205285865440777e-01
-1.867036354833841449e-01 4.787145520150659639e-02 2.739250603024289132e-01
-2.357452279412746432e-01 -2.187234860765934208e-01 1.714802847648784212e-01
-1.563372165447473594e-01 -2.812535131126642218e-01 9.373591556321830831e-02
-1.641086825957894513e-01 -2.744209090957046016e-01 8.444342112075539641e-02
-1.771885161980986667e-01 -2.644759349742532017e-01 1.056594864369556352e-01
-2.899740541067719612e-01 -1.783521640583873025e-01 2.798389428902789411e-01
-2.970384923529624799e-01 -1.717594151699542993e-01 2.623418714071437119e-01
-1.012679004490375512e-01 -3.242057471454143913e-01 3.004797151338309269e-02
-2.430621440690756141e-01 -2.140045051807165088e-01 2.033632658744975452e-01
-2.256898073813319305e-01 -2.266031286194920558e-01 1.607223183728381799e-01
-2.120128541198373073e-01 -2.366323076304793216e-01 1.297711227275058776e-01
-2.609755109104514581e-01 -1.998655559387803038e-01 2.201184194852039422e-01
-2.622836122068762932e-01 -1.990792767313122602e-01 2.271783867407962676e-01
-5.868459517329933928e-02 -3.579101611557602980e-01 -7.563624048121275756e-03
-2.043715263822674932e-01 -2.443498878070712310e-01 1.625997195292636643e-01
-1.594877889156341710e-01 -2.788174468398094685e-01 9.788392398606987621e-02
2.369478784665465243e-01 -2.979210704535244919e-02 -1.057143284655734927e-01
2.040245989665389059e-01 -3.705102010667302159e-03 -7.730912055980414255e-02
1.757476122796535478e-01 2.386347877502442705e-02 -1.753096193147823390e-01
2.259633140519261563e-01 -1.994958953291176007e-02 -1.232340841485187466e-01
1.674709747600555410e-01 3.286544616818429243e-02 -2.261044386507198301e-01
1.765288876283168940e-01 2.268769904017449435e-02 -1.627857676006481125e-01
2.147800799530744653e-01 -1.017592223703858711e-02 -1.352185086132213498e-01
2.229890107667445998e-01 -1.959775445938108374e-02 -7.314012880574911890e-02
1.588581939384341446e-01 3.859866984754802000e-02 -1.928060261202976244e-01
2.623089691054821260e-01 -5.289754752516746122e-02 -5.623042575608936527e-02
1.372665164306759999e-01 5.983998670428991584e-02 -2.721545166398212645e-01
2.415982219323515867e-01 -3.558216439336537446e-02 -5.981748107921332908e-02
2.013860144010186370e-01 -4.322643879055843019e-04 -1.030564651871845039e-01
1.444984111049771314e-01 5.971055635064842493e-02 -4.111675159169360660e-01
1.953684849116205935e-01 1.977387944012884424e-02 -4.638422506333514383e-01
7.012198127150537363e-02 1.174918679964542523e-01 -3.197024539352580907e-01
8.855310222089293748e-02 1.025894684034586168e-01 -3.285312162710353756e-01
1.033775366187095757e-01 9.174310088396073204e-02 -3.626540187717601227e-01
3.182803759872919469e-03 1.704832562467455959e-01 -2.608027852393314250e-01
7.826728414624931074e-02 1.110748619058728459e-01 -3.276067481852695251e-01
1.466655751621723236e-01 5.750220664381983093e-02 -4.013932844711467496e-01
2.910984683990479327e-02 1.485726313817501143e-01 -2.507622876096889386e-01
9.836059511482717066e-02 9.619578224599362182e-02 -3.696445219350978917e-01
2.452612846520543233e-01 -4.451285511165860992e-02 -4.791872667790204043e-01
2.096364361405373550e-02 4.689750204324721894e-02 1.327385189125686871e-01
6.493323652803897894e-02 5.557378302752974397e-02 1.105885864997655232e-01
-1.428444571095705273e-01 5.005419354140761001e-02 2.347554740316047939e-01
-6.523706605076791398e-02 7.352300810813908183e-03 1.637783672571927474e-01
-1.125656996726989711e-01 -8.937112829685220361e-03 1.838009645406529224e-01
-1.644777012109754910e-02 6.831794632196425132e-02 1.674129185098782169e-01
-1.594698788857459859e-01 3.679856808066367391e-02 2.376489560920745370e-01
-1.936937278985977340e-01 -5.500307936429978117e-02 2.081519326750561616e-01
1.311857602059841865e-02 3.298743186056614374e-02 1.298970833628624588e-01
-4.720874983549118442e-02 3.139444889783858661e-02 1.659536633339896983e-01
-2.498548557883501220e-01 -1.048115791374444883e-01 2.151616606787964958e-01
-1.034628984868526391e-01 -2.986017195940018909e-02 1.667302418204396619e-01
8.902501976668833472e-02 4.395802405416962544e-02 8.945643831551075564e-02
-1.084259384989740699e-02 1.366790370821952816e-01 2.015485898510366303e-01
1.934417490959156050e-03 8.921225913763042303e-03 1.235186187876761155e-01
-6.114808006703853493e-02 3.416689288794992618e-02 1.760107960831373553e-01
-5.587819303095342693e-02 8.845252610743045696e-02 2.026167086847871501e-01
-1.564180402100085257e-02 6.444691421806811316e-02 1.647922261980920844e-01
4.564413511574268167e-02 6.857700075089931402e-02 1.295430283103138069e-01
-2.035411506479978538e-01 -8.432204990446569293e-02 1.980685254769772308e-01
-9.875107219815260767e-03 2.808597771525381259e-03 1.273892002571001547e-01
-2.099670724236965269e-01 -7.402149638652801011e-02 2.076629935167729757e-01
-9.485589694857597676e-02 5.894220868825911230e-02 2.102615129325539067e-01
-1.270666577076912107e-01 2.616636400222778491e-02 2.119691032680496301e-01
-1.305202743130922660e-01 6.190986705362797049e-02 2.337258528670668745e-01
-1.834468233406543261e-02 1.673316666132211861e-01 2.229861506375670488e-01
-1.787577968722581789e-01 2.784567943215354724e-03 2.307648527611792511e-01
-2.502594693291187444e-01 -8.981258654475213210e-02 2.236519020050391493e-01
-1.072665115451812701e-01 -1.947109869003296745e-02 1.747679950322583164e-01
-1.465049449717998331e-01 8.463170337677003441e-03 2.141404882256686681e-01
-8.432711169660093986e-02 5.757611912786961272e-02 2.030651404834166174e-01
-2.258315001314878390e-01 -6.105139423549175992e-02 2.245026745771244170e-01
-2.755108721911907893e-02 -1.268337440192698895e-02 1.296968661031499548e-01
7.809021210730074380e-02 3.165976968705654093e-02 8.939227759137749474e-02
6.441800573647020467e-02 6.618909644544121451e-02 1.167375418975204193e-01
-5.871112422883512094e-02 4.077638634741306833e-02 1.781510859980061645e-01
9.282844470024112504e-02 7.386696053624153269e-02 1.035641503404825803e-01
-1.724968118077516432e-01 1.806472759068010470e-02 2.353289714304357405e-01
-1.390894996100663916e-01 -3.362788480222225762e-02 1.864701025415956837e-01
-3.198126782774923793e-03 1.747307869791978052e-03 1.227183765292912676e-01
-7.934058378636836550e-02 4.639847227632998283e-02 1.938698623074963656e-01
-5.140473005652428096e-02 2.428576809167873329e-03 1.526045222221687481e-01
-5.493929418325445291e-03 1.344629834151268022e-01 1.970563639774173814e-01
-2.391986085975169873e-01 -7.794345684409142994e-02 2.234030729025974771e-01
3.965979849040508765e-02 1.018359671205282257e-01 1.514837166855856898e-01
-9.484146480917932109e-02 7.619050968289375891e-02 2.197313012069836424e-01
7.880682875037192670e-02 7.760569416999815728e-02 1.142026722324639421e-01
-1.165660087794065519e-01 -1.538660640537739543e-02 1.827056753486394625e-01
2.144079278060794236e-01 -1.129381046503781516e-02 -1.599362362772598911e-01
2.304065385201573557e-01 -7.022424516707660713e-02 -1.002838884366303723e-01
2.091348457705974884e-01 -3.372329575181007288e-02 -1.481212915465608404e-01
2.434123050561547430e-01 -6.678758286625148533e-02 -9.040414163276555559e-02
2.196330203810334392e-01 -2.866643540769815007e-02 -1.418632491598278422e-01
2.534885195723176055e-01 -7.128304829508066986e-02 -7.736648791138084347e-02
2.409859478244185671e-01 -4.508285443395377429e-02 -1.090529408581927540e-01
-1.334051583856344092e-01 -2.804830126565694970e-01 -3.750639239715412576e-01
-1.579791605070233196e-01 -2.605662813600898020e-01 -3.644194560812786254e-01
-1.135176159408688712e-01 -2.955337446579336946e-01 -4.089898607825115939e-01
-9.076287220686674040e-02 -3.137425632670521880e-01 -4.243802675436810223e-01
-2.457103623425960504e-01 -1.921832760930061446e-01 -2.619050212167575720e-01
-1.494211017113924178e-01 -2.675378179544210533e-01 -3.672871909593418693e-01
-2.155582870709896182e-01 -2.147417568337917360e-01 -3.195134002994373112e-01
-2.730343574213981439e-01 -1.703802583873272047e-01 -2.419493791936710714e-01
-1.634719412735104460e-01 -2.566573568901419633e-01 -3.491710309027507564e-01
-2.753957539582252423e-01 -1.676954365897178889e-01 -2.592029255603626181e-01
9.463320183247328488e-02 9.721333426862957539e-02 -3.205365567351504685e-01
2.096771043887734609e-01 6.882957611978060553e-03 -4.393626748896762857e-01
2.216467747938632993e-01 -1.582768750190713392e-03 -4.738351490904017527e-01
1.892454898285865772e-01 2.401025891900063214e-02 -4.439750156522914160e-01
1.463910342341661341e-01 5.742936643898491345e-02 -3.942727631164714697e-01
1.331523005148768368e-01 6.660375812679530938e-02 -3.516673574496432808e-01
2.399954294404387234e-01 -1.728797063440080939e-02 -4.620124191476031594e-01
1.705973673978448124e-01 3.840228058665991206e-02 -4.187838622809573752e-01
1.380249912738800155e-01 6.301114061474799577e-02 -3.622316029573603990e-01
1.669819789001345811e-01 -5.592569274157285081e-02 -3.262074200626460807e-02
8.027700042456389906e-02 1.504798720747234364e-02 -1.672493567568063555e-01
1.427108844822645162e-01 -2.677820141494272055e-02 -7.978826210800557539e-02
1.040473247957229841e-01 -1.149073435306548208e-02 -1.231068905397877111e-01
-1.821509105515480009e-01 7.880337399244319307e-03 3.090893361700326469e-01
1.863317564001679416e-01 -1.396111294656991741e-02 -4.843591772133857276e-01
1.510215847274661016e-01 2.155870824605228553e-02 -4.432229787946865285e-01
1.926314601764082812e-01 1.644269447624704950e-03 -4.796400391203164970e-01
1.404069577422737969e-01 1.880108166784047463e-02 -4.382401997114718228e-01
2.048276856532692813e-01 -4.777990512520073618e-02 -5.142670256901532566e-01
1.065197881236672195e-01 3.162651341050863596e-02 -4.104466181957721616e-01
-1.281954687511920876e-01 -2.606523883020878118e-01 -1.319949737355111119e-02
-1.120028663325309676e-01 -2.657264025259017948e-01 6.135035336501892811e-03
-2.072871467334031770e-01 -2.239711791938543139e-01 -1.165854815411940248e-01
-1.945593577075004632e-01 -2.249687104988098152e-01 -1.036373219263553580e-01
-1.774229950851201887e-01 -2.517854712277650675e-01 -6.704627620056272108e-02
-1.890527297610044566e-01 -2.412654373174905886e-01 -8.610366875879466031e-02
-1.387855044203996635e-01 -2.625669361442327654e-01 -2.190881181862204541e-02
-2.025044665184616566e-01 -4.685109950512651028e-02 3.025957777905091683e-01
1.130479147231578940e-01 -4.606527883327007356e-01 -1.809807268715650230e-01
1.278791507166623931e-01 -4.857917529147863234e-01 -2.038751660067215643e-01
9.210065675854683942e-02 -4.486089977252483152e-01 -1.615384158067405262e-01
5.653366529226301618e-02 -4.267309025251865284e-01 -1.277416619580611368e-01
4.808635980725287085e-02 -4.386189454698562473e-01 -1.291032275468483592e-01
1.303708028638363159e-01 -4.802666013300418979e-01 -2.023642495517432860e-01
-2.983315350592136705e-01 -1.293683548152446683e-01 2.541082414142787349e-01
-1.559134692376851761e-01 3.099936208426949669e-02 3.157284211649000749e-01
-2.305198158714174828e-01 -9.671169666200878090e-02 2.923462180524319387e-01
-2.663127226129173852e-01 -1.490670248183608160e-01 2.854870738029480215e-01
-1.355647478324175093e-01 -1.038117043226957359e-01 -2.915712527252733999e-01
-7.210622327834367851e-02 -2.677292254656553350e-02 -2.886928860489651472e-01
-4.715215629816055243e-02 -8.670324480533606049e-03 -2.783920233124866916e-01
-5.963973382532596762e-02 -2.262402753770351160e-02 -2.798656148819625433e-01
-1.860870332142710581e-01 -1.453840026739239566e-01 -3.087251333883777038e-01
-1.087941291022300749e-01 -6.056603454351425220e-02 -2.984387776514515478e-01
-8.151177723884583948e-02 -4.157410709857940062e-02 -2.865753903871401942e-01
2.304931141734122696e-02 -9.541975777745247134e-02 5.325272432554511992e-02
5.067242103219030125e-03 -1.151801158219575849e-01 5.340212916888295580e-02
1.490850367426871381e-02 -1.043224596178531638e-01 5.334408586177974421e-02
7.741552362382411734e-02 -4.711107751548290756e-02 4.651762161254882622e-02
1.067783901953697212e-01 -1.973323123574256821e-02 4.358707952685655918e-02
3.739740386545657713e-02 -8.727325974881650072e-02 4.894574053246528167e-02
8.284211247861385241e-02 -2.891527312993968923e-04 6.892599944375454868e-02
-6.001645552098750641e-02 -1.742049579566717354e-01 6.080945032317192078e-02
4.090070802009105888e-01 -2.106781583666801072e-01 -1.972902656846866054e-01
1.629174284383654303e-01 -1.834956617921591759e-02 -4.212103357778489432e-01
1.910615830203890864e-01 -4.081327622264625810e-02 -4.416167815004289343e-01
1.097996530163288242e-01 2.360134241580962022e-02 -3.721257695923745334e-01
1.756998742181062889e-01 -2.873756529510022861e-02 -4.260813772402703981e-01
1.281248467630147769e-01 9.469674741625785930e-03 -3.971444907866418239e-01
9.721636981368067532e-02 7.623806463360788266e-02 1.259553318046405801e-01
1.113877278134226823e-01 6.534417454391719393e-02 1.057897583721950641e-01
-6.619735084801914304e-02 1.620131411972641766e-01 -1.956091241727769270e-01
6.104087255448101268e-02 4.797265092998742597e-02 8.063815680891275872e-03
3.299667556792497403e-02 7.312543201416729644e-02 -3.724096796855330682e-02
1.034337579399346313e-02 9.513364421099423929e-02 -1.139124210010468985e-01
-2.348195340937375974e-01 -3.062971576869488732e-02 2.467230045454577025e-01
-1.567139309376478495e-01 6.330031779348849197e-02 2.505255426738783875e-01
5.282429346084595301e-02 1.063536960649490160e-01 -2.690834371485933962e-01
1.543359765750169643e-01 1.833114824473856819e-02 -1.055985471281409294e-01
7.549732524096963715e-02 9.437542680561541997e-02 -2.383457725402340355e-01
9.223543084710836282e-02 5.713957743316888660e-02 -1.943005338557809436e-01
6.800890498608351542e-02 7.971875054150820428e-02 -2.344996311596035943e-01
1.195457891410589280e-01 5.918323152124882469e-02 -1.696640391547605542e-01
1.653067503601312882e-01 9.504042152762390283e-03 -3.955957324460521174e-01
1.969157609254121866e-01 -3.758961738288401494e-02 -4.408263865773379697e-01
1.380179957538843205e-01 1.224916539847852037e-02 -3.773811848315223871e-01
1.398395055454969560e-01 2.058624525010585571e-02 -3.739147459005564555e-01
1.732081653815507882e-01 -2.388769928395750169e-02 -4.187830085980147055e-01
-1.165337207588553609e-01 -3.011064095774292904e-01 -2.176278030299022559e-01
